-0.424803 -0.426245 -0.151551 0.000000 0.000000 0.000000 
-0.392625 -0.420948 -0.027297 0.000000 0.000000 0.000000 
-0.546287 -0.518353 -0.052848 0.000000 0.000000 0.000000 
-0.392657 -0.420287 -0.092252 0.000000 0.000000 0.000000 
-0.428062 -0.499718 -0.010073 0.000000 0.000000 0.000000 
-0.594492 -0.652412 0.119408 0.000000 0.000000 0.000000 
-0.476808 -0.482061 0.030851 0.000000 0.000000 0.000000 
-0.544527 -0.543153 0.057464 0.000000 0.000000 0.000000 
-0.417775 -0.451026 0.029595 0.000000 0.000000 0.000000 
-0.583611 -0.574527 0.063532 0.000000 0.000000 0.000000 
-0.520512 -0.583795 0.143936 0.000000 0.000000 0.000000 
-0.402558 -0.511843 -0.008093 0.000000 0.000000 0.000000 
-0.000369 -0.522196 -0.108008 0.000000 0.000000 0.000000 
0.004118 -0.502969 -0.134119 0.000000 0.000000 0.000000 
-0.306836 -0.566584 0.140692 0.000000 0.000000 0.000000 
-0.131500 -0.562171 -0.161895 0.000000 0.000000 0.000000 
-0.299997 -0.566855 0.126508 0.000000 0.000000 0.000000 
0.330273 -0.631390 -0.194092 0.000000 0.000000 0.000000 
-0.088402 -0.581144 0.123011 0.000000 0.000000 0.000000 
0.130237 -0.401032 0.018264 0.000000 0.000000 0.000000 
-0.073485 -0.424087 0.042081 0.000000 0.000000 0.000000 
0.000209 -0.506538 0.036793 0.000000 0.000000 0.000000 
0.025776 -0.444003 -0.079076 0.000000 0.000000 0.000000 
-0.056869 -0.575455 0.033283 0.000000 0.000000 0.000000 
-0.055915 -0.521932 -0.012965 0.000000 0.000000 0.000000 
0.151304 -0.539746 0.015062 0.000000 0.000000 0.000000 
0.055691 -0.562567 0.022564 0.000000 0.000000 0.000000 
-0.467678 0.714467 0.139348 0.000000 0.000000 0.000000 
-1.193270 0.381570 -0.130189 0.000000 0.000000 0.000000 
-1.439510 0.582486 -0.019366 0.000000 0.000000 0.000000 
-1.317560 0.488737 0.112064 0.000000 0.000000 0.000000 
-1.377560 0.433945 0.217986 0.000000 0.000000 0.000000 
-1.181540 0.454193 -0.081894 0.000000 0.000000 0.000000 
-0.810619 0.445245 0.076384 0.000000 0.000000 0.000000 
-0.710575 -0.543889 0.016400 0.000000 0.000000 0.000000 
-0.432095 -0.506937 0.002950 0.000000 0.000000 0.000000 
-0.667498 -0.429626 -0.150109 0.000000 0.000000 0.000000 
-0.605865 -0.372278 -0.094536 0.000000 0.000000 0.000000 
-0.072338 -0.425681 0.008126 0.000000 0.000000 0.000000 
-0.075172 -0.447176 -0.003939 0.000000 0.000000 0.000000 
0.184842 -0.554109 0.018724 0.000000 0.000000 0.000000 
0.121549 -0.545319 -0.117314 0.000000 0.000000 0.000000 
-0.133964 -0.507621 -0.099690 0.000000 0.000000 0.000000 
-0.326267 -0.585687 0.043409 0.000000 0.000000 0.000000 
-0.309176 -0.537641 -0.009132 0.000000 0.000000 0.000000 
-0.221511 -0.533369 -0.141829 0.000000 0.000000 0.000000 
-0.339404 -0.581652 -0.018263 0.000000 0.000000 0.000000 
-0.321123 -0.581444 0.045027 0.000000 0.000000 0.000000 
-0.346198 -0.581873 0.042555 0.000000 0.000000 0.000000 
-0.180151 0.745695 -0.191946 0.000000 0.000000 0.000000 
-0.128794 0.755764 -0.209834 0.000000 0.000000 0.000000 
-0.166271 0.710176 0.000957 0.000000 0.000000 0.000000 
-0.095190 -0.588383 0.133557 0.000000 0.000000 0.000000 
0.010312 -0.518176 -0.101777 0.000000 0.000000 0.000000 
0.001076 -0.510129 -0.120494 0.000000 0.000000 0.000000 
0.164272 -0.501386 0.013893 0.000000 0.000000 0.000000 
0.120591 -0.580159 -0.166675 0.000000 0.000000 0.000000 
-0.101224 -0.545926 0.131797 0.000000 0.000000 0.000000 
-0.059953 -0.577635 0.145064 0.000000 0.000000 0.000000 
-0.004171 -0.525514 0.042067 0.000000 0.000000 0.000000 
-0.024718 -0.556740 0.057665 0.000000 0.000000 0.000000 
-0.020669 -0.507890 -0.061282 0.000000 0.000000 0.000000 
-0.465438 -0.454532 -0.033220 0.000000 0.000000 0.000000 
-0.359337 -0.418913 -0.153169 0.000000 0.000000 0.000000 
-0.468018 -0.455076 -0.033365 0.000000 0.000000 0.000000 
-0.365767 -0.394052 -0.034530 0.000000 0.000000 0.000000 
-0.351844 -0.391132 -0.018315 0.000000 0.000000 0.000000 
-0.400980 -0.450452 -0.164720 0.000000 0.000000 0.000000 
-0.325818 -0.538750 -0.170592 0.000000 0.000000 0.000000 
-0.506988 -0.577022 0.078780 0.000000 0.000000 0.000000 
-0.104825 -0.435688 0.034970 0.000000 0.000000 0.000000 
0.485648 0.405649 -0.097822 0.000000 0.000000 0.000000 
-0.081797 0.781798 -0.183573 0.000000 0.000000 0.000000 
0.104803 0.537683 -0.044911 0.000000 0.000000 0.000000 
-0.019628 0.560626 0.007289 0.000000 0.000000 0.000000 
0.469277 0.415910 -0.137779 0.000000 0.000000 0.000000 
-0.001049 0.665479 -0.004961 0.000000 0.000000 0.000000 
0.408434 0.373388 -0.037372 0.000000 0.000000 0.000000 
0.248569 0.807670 -0.147733 0.000000 0.000000 0.000000 
0.298633 0.704008 0.118842 0.000000 0.000000 0.000000 
0.373645 0.295779 -0.014257 0.000000 0.000000 0.000000 
0.510298 0.421329 -0.097173 0.000000 0.000000 0.000000 
0.357987 0.332155 -0.073670 0.000000 0.000000 0.000000 
-0.158136 0.985746 -0.029190 0.000000 0.000000 0.000000 
0.276389 0.744390 -0.181703 0.000000 0.000000 0.000000 
0.401742 0.371834 -0.013053 0.000000 0.000000 0.000000 
0.149413 0.708205 0.001999 0.000000 0.000000 0.000000 
0.265133 0.680636 -0.002769 0.000000 0.000000 0.000000 
0.267053 0.729248 0.115481 0.000000 0.000000 0.000000 
-0.134402 0.557381 0.006864 0.000000 0.000000 0.000000 
0.317339 0.427616 -0.019561 0.000000 0.000000 0.000000 
0.312828 0.366959 -0.047355 0.000000 0.000000 0.000000 
0.246178 0.788640 0.008106 0.000000 0.000000 0.000000 
0.061405 0.710464 -0.000502 0.000000 0.000000 0.000000 
-0.143598 0.711762 -0.166967 0.000000 0.000000 0.000000 
0.286153 0.673572 -0.004239 0.000000 0.000000 0.000000 
0.097470 0.809341 -0.001534 0.000000 0.000000 0.000000 
-0.140376 0.700442 -0.192626 0.000000 0.000000 0.000000 
-0.114280 0.707060 -0.000971 0.000000 0.000000 0.000000 
0.096860 0.761742 -0.155205 0.000000 0.000000 0.000000 
0.050918 0.712174 0.001050 0.000000 0.000000 0.000000 
-1.792610 0.032602 0.250312 0.000000 0.000000 0.000000 
-1.068980 0.580546 0.098367 0.000000 0.000000 0.000000 
-0.861000 -0.324189 -0.183598 0.000000 0.000000 0.000000 
-0.578542 -0.393571 -0.085701 0.000000 0.000000 0.000000 
-1.214920 -0.509643 0.091019 0.000000 0.000000 0.000000 
-0.790797 -0.454528 0.096845 0.000000 0.000000 0.000000 
-0.644898 -0.408966 -0.109926 0.000000 0.000000 0.000000 
-0.577456 -0.381322 -0.057397 0.000000 0.000000 0.000000 
-0.617795 -0.401475 -0.158792 0.000000 0.000000 0.000000 
-0.460646 -0.443882 -0.151873 0.000000 0.000000 0.000000 
-0.869879 -0.518607 0.108913 0.000000 0.000000 0.000000 
-0.526550 -0.493206 0.016200 0.000000 0.000000 0.000000 
-0.662629 -0.663545 0.173515 0.000000 0.000000 0.000000 
-0.372558 -0.427872 -0.171464 0.000000 0.000000 0.000000 
-0.426260 -0.426838 -0.153318 0.000000 0.000000 0.000000 
-0.392369 -0.274805 0.024015 0.000000 0.000000 0.000000 
-1.386410 -0.203001 0.038723 0.000000 0.000000 0.000000 
-1.234170 -0.272761 0.051677 0.000000 0.000000 0.000000 
-0.813019 -0.446237 -0.052985 0.000000 0.000000 0.000000 
-1.193690 -0.336490 -0.043054 0.000000 0.000000 0.000000 
-0.406161 -0.362431 -0.115876 0.000000 0.000000 0.000000 
-0.482433 -0.462119 -0.162535 0.000000 0.000000 0.000000 
-0.569409 -0.535262 -0.006020 0.000000 0.000000 0.000000 
-0.439766 -0.359930 -0.138224 0.000000 0.000000 0.000000 
-0.429150 -0.519823 0.003821 0.000000 0.000000 0.000000 
-0.480204 -0.368495 -0.130178 0.000000 0.000000 0.000000 
-0.394688 -0.353111 -0.109330 0.000000 0.000000 0.000000 
-0.496629 -0.500031 0.032957 0.000000 0.000000 0.000000 
-0.439073 -0.419775 -0.150190 0.000000 0.000000 0.000000 
-0.511980 -0.494839 -0.005176 0.000000 0.000000 0.000000 
-0.525634 -0.498255 0.012657 0.000000 0.000000 0.000000 
-0.418123 -0.401964 -0.110878 0.000000 0.000000 0.000000 
-0.453436 -0.444748 -0.156268 0.000000 0.000000 0.000000 
-0.377160 -0.405961 -0.016587 0.000000 0.000000 0.000000 
-0.368650 -0.396002 -0.034478 0.000000 0.000000 0.000000 
-0.477578 -0.484660 0.034869 0.000000 0.000000 0.000000 
-0.525122 -0.484241 0.013312 0.000000 0.000000 0.000000 
-0.095648 -0.444288 0.036602 0.000000 0.000000 0.000000 
-0.134058 -0.466489 -0.138579 0.000000 0.000000 0.000000 
-0.005144 -0.507943 -0.129959 0.000000 0.000000 0.000000 
-0.099783 -0.588566 0.125740 0.000000 0.000000 0.000000 
-0.409877 -0.445765 -0.067192 0.000000 0.000000 0.000000 
-0.423246 -0.491771 -0.009887 0.000000 0.000000 0.000000 
-0.403420 -0.428482 -0.095187 0.000000 0.000000 0.000000 
-0.334823 -0.418141 -0.174803 0.000000 0.000000 0.000000 
-0.533266 -0.531506 0.024143 0.000000 0.000000 0.000000 
-1.342580 0.498332 -0.085787 0.000000 0.000000 0.000000 
-1.183120 0.447890 -0.018963 0.000000 0.000000 0.000000 
-1.337270 -0.238656 -0.113363 0.000000 0.000000 0.000000 
-1.356280 -0.244172 -0.132715 0.000000 0.000000 0.000000 
-1.473330 0.326544 -0.107400 0.000000 0.000000 0.000000 
-1.437200 0.328907 -0.134318 0.000000 0.000000 0.000000 
-1.308510 -0.272488 -0.071119 0.000000 0.000000 0.000000 
-1.708590 -0.223623 0.069114 0.000000 0.000000 0.000000 
-0.681493 -0.326172 -0.093998 0.000000 0.000000 0.000000 
-0.641750 -0.322632 -0.041612 0.000000 0.000000 0.000000 
-1.006690 -0.446385 -0.117313 0.000000 0.000000 0.000000 
-0.488717 -0.380139 -0.144574 0.000000 0.000000 0.000000 
-0.431658 -0.359910 -0.133540 0.000000 0.000000 0.000000 
-0.614759 -0.467824 -0.000946 0.000000 0.000000 0.000000 
-0.321296 -0.500401 -0.005300 0.000000 0.000000 0.000000 
-0.698667 -0.532317 0.029890 0.000000 0.000000 0.000000 
-0.644059 -0.302882 -0.170480 0.000000 0.000000 0.000000 
-0.206753 -0.521016 -0.038459 0.000000 0.000000 0.000000 
-0.164892 -0.572443 0.091078 0.000000 0.000000 0.000000 
-0.130473 -0.570290 0.135899 0.000000 0.000000 0.000000 
-0.038871 -0.534463 -0.042441 0.000000 0.000000 0.000000 
-0.388722 -0.373239 -0.099972 0.000000 0.000000 0.000000 
-0.382932 -0.394738 -0.031882 0.000000 0.000000 0.000000 
-0.327585 -0.564521 0.048259 0.000000 0.000000 0.000000 
-0.392124 -0.417602 -0.019617 0.000000 0.000000 0.000000 
-1.492470 0.259381 -0.121652 0.000000 0.000000 0.000000 
-1.448530 0.199314 -0.088976 0.000000 0.000000 0.000000 
-1.429300 0.041419 0.008346 0.000000 0.000000 0.000000 
-1.563070 0.447019 0.232369 0.000000 0.000000 0.000000 
-1.420070 0.524339 0.101160 0.000000 0.000000 0.000000 
-1.539530 -0.025851 -0.132588 0.000000 0.000000 0.000000 
-1.428640 0.462209 0.175364 0.000000 0.000000 0.000000 
-1.318450 0.359229 -0.131815 0.000000 0.000000 0.000000 
-1.289540 -0.288239 -0.075464 0.000000 0.000000 0.000000 
-1.033480 0.357996 -0.030693 0.000000 0.000000 0.000000 
-0.113541 -0.576631 0.129885 0.000000 0.000000 0.000000 
-0.150085 -0.574371 0.125325 0.000000 0.000000 0.000000 
0.008370 -0.510629 -0.024584 0.000000 0.000000 0.000000 
-0.098701 -0.438055 0.021570 0.000000 0.000000 0.000000 
-0.549375 -0.498914 -0.006748 0.000000 0.000000 0.000000 
-0.461579 -0.373198 -0.150325 0.000000 0.000000 0.000000 
-0.601339 -0.510711 0.019167 0.000000 0.000000 0.000000 
-0.566044 -0.479849 -0.000250 0.000000 0.000000 0.000000 
-0.495120 -0.376789 -0.157931 0.000000 0.000000 0.000000 
-0.595349 -0.498043 0.009082 0.000000 0.000000 0.000000 
-0.594279 -0.529514 -0.001653 0.000000 0.000000 0.000000 
-0.628753 -0.557875 0.157727 0.000000 0.000000 0.000000 
-0.353109 -0.342206 -0.084090 0.000000 0.000000 0.000000 
-0.411653 -0.464529 -0.091021 0.000000 0.000000 0.000000 
-0.500865 -0.370213 -0.166239 0.000000 0.000000 0.000000 
-0.422105 -0.383474 -0.118238 0.000000 0.000000 0.000000 
-0.359929 -0.301105 0.039469 0.000000 0.000000 0.000000 
-0.434096 -0.503062 0.028651 0.000000 0.000000 0.000000 
-0.337283 -0.409612 -0.166314 0.000000 0.000000 0.000000 
-0.233944 -0.565279 0.054160 0.000000 0.000000 0.000000 
-0.299458 -0.586572 0.080685 0.000000 0.000000 0.000000 
-0.386214 -0.512845 -0.003482 0.000000 0.000000 0.000000 
-0.490505 -0.556876 0.090257 0.000000 0.000000 0.000000 
-0.416914 -0.455689 -0.191414 0.000000 0.000000 0.000000 
-0.086923 -0.574554 0.123152 0.000000 0.000000 0.000000 
-0.116796 -0.551234 0.090180 0.000000 0.000000 0.000000 
-0.167888 -0.571009 0.098830 0.000000 0.000000 0.000000 
-0.176545 -0.586022 0.090427 0.000000 0.000000 0.000000 
-0.049523 -0.534789 -0.026278 0.000000 0.000000 0.000000 
-0.049820 -0.536515 -0.026842 0.000000 0.000000 0.000000 
-0.208249 -0.501334 -0.070501 0.000000 0.000000 0.000000 
-0.199994 -0.519271 -0.029247 0.000000 0.000000 0.000000 
-0.205088 -0.469928 -0.077646 0.000000 0.000000 0.000000 
-0.176858 -0.578619 0.115512 0.000000 0.000000 0.000000 
-0.177201 -0.525140 -0.017349 0.000000 0.000000 0.000000 
-0.152904 -0.568391 0.082490 0.000000 0.000000 0.000000 
-0.167562 -0.533930 -0.018228 0.000000 0.000000 0.000000 
0.082397 -0.539253 -0.038899 0.000000 0.000000 0.000000 
-0.197461 -0.461305 -0.074309 0.000000 0.000000 0.000000 
-0.154891 -0.577043 0.090014 0.000000 0.000000 0.000000 
-0.079818 -0.431381 0.001281 0.000000 0.000000 0.000000 
0.089861 -0.473196 -0.007161 0.000000 0.000000 0.000000 
-0.145668 -0.587156 0.092012 0.000000 0.000000 0.000000 
-0.221542 -0.525446 0.092394 0.000000 0.000000 0.000000 
-0.194717 -0.482177 -0.059833 0.000000 0.000000 0.000000 
-0.152446 -0.558554 0.132335 0.000000 0.000000 0.000000 
-0.155358 -0.573709 0.077855 0.000000 0.000000 0.000000 
-0.044629 -0.539299 -0.148215 0.000000 0.000000 0.000000 
-0.076807 -0.554374 0.036153 0.000000 0.000000 0.000000 
-0.053636 -0.544706 -0.024332 0.000000 0.000000 0.000000 
-0.114394 -0.578861 0.130416 0.000000 0.000000 0.000000 
-0.121874 -0.450175 -0.080301 0.000000 0.000000 0.000000 
-0.302808 -0.573959 0.136449 0.000000 0.000000 0.000000 
-0.232032 -0.559383 0.053630 0.000000 0.000000 0.000000 
0.012464 -0.511685 -0.133606 0.000000 0.000000 0.000000 
-0.140830 -0.483541 -0.149436 0.000000 0.000000 0.000000 
-0.310960 -0.558854 0.024005 0.000000 0.000000 0.000000 
-0.348262 -0.512434 -0.169536 0.000000 0.000000 0.000000 
-0.247968 -0.583902 0.092848 0.000000 0.000000 0.000000 
-0.312875 -0.496352 0.010189 0.000000 0.000000 0.000000 
-0.077009 -0.443592 -0.001119 0.000000 0.000000 0.000000 
-0.296806 -0.567073 0.145687 0.000000 0.000000 0.000000 
-0.352191 -0.578744 0.077541 0.000000 0.000000 0.000000 
-0.343935 -0.578956 0.078031 0.000000 0.000000 0.000000 
-0.208543 -0.574568 0.090506 0.000000 0.000000 0.000000 
-0.246612 -0.584066 0.157303 0.000000 0.000000 0.000000 
-0.057269 -0.578347 0.138432 0.000000 0.000000 0.000000 
-0.252242 -0.567907 0.071284 0.000000 0.000000 0.000000 
-0.528160 -0.515913 0.096300 0.000000 0.000000 0.000000 
-0.180796 -0.581032 0.078849 0.000000 0.000000 0.000000 
-0.225312 -0.705348 -0.243127 0.000000 0.000000 0.000000 
-0.242681 -0.534654 0.078976 0.000000 0.000000 0.000000 
-0.697162 -0.526429 0.018233 0.000000 0.000000 0.000000 
-0.561731 -0.557717 0.075569 0.000000 0.000000 0.000000 
-0.508422 -0.370819 -0.171345 0.000000 0.000000 0.000000 
-0.091389 -0.425305 0.003532 0.000000 0.000000 0.000000 
-0.361781 -0.349185 -0.171872 0.000000 0.000000 0.000000 
-0.432732 -0.391278 -0.122734 0.000000 0.000000 0.000000 
-0.374688 -0.357165 -0.163508 0.000000 0.000000 0.000000 
-0.391205 -0.360460 -0.170475 0.000000 0.000000 0.000000 
-0.428965 -0.376336 -0.151287 0.000000 0.000000 0.000000 
-0.264552 -0.564357 0.110178 0.000000 0.000000 0.000000 
-0.392967 -0.352595 -0.108238 0.000000 0.000000 0.000000 
-0.409610 -0.413498 -0.019070 0.000000 0.000000 0.000000 
-0.364263 -0.408081 -0.148050 0.000000 0.000000 0.000000 
-0.514948 -0.581234 0.073149 0.000000 0.000000 0.000000 
-0.822566 -0.511738 0.046626 0.000000 0.000000 0.000000 
-0.371626 -0.499824 0.009852 0.000000 0.000000 0.000000 
-0.344387 -0.446035 -0.003905 0.000000 0.000000 0.000000 
-0.780695 -0.563343 0.070888 0.000000 0.000000 0.000000 
-0.175754 -0.575588 0.115141 0.000000 0.000000 0.000000 
-0.130933 -0.574715 0.094343 0.000000 0.000000 0.000000 
-0.341066 -0.554016 0.031737 0.000000 0.000000 0.000000 
-0.388056 -0.517421 0.005363 0.000000 0.000000 0.000000 
-0.019624 -0.524286 -0.070033 0.000000 0.000000 0.000000 
-0.078304 -0.446368 -0.005443 0.000000 0.000000 0.000000 
-0.150459 -0.574065 0.118906 0.000000 0.000000 0.000000 
-0.080942 -0.436347 0.021548 0.000000 0.000000 0.000000 
-0.393438 -0.450220 0.033202 0.000000 0.000000 0.000000 
-0.378743 -0.456762 -0.013040 0.000000 0.000000 0.000000 
-0.649407 -0.573002 0.185958 0.000000 0.000000 0.000000 
-0.590496 -0.504667 0.020286 0.000000 0.000000 0.000000 
-1.002830 -0.454223 0.035763 0.000000 0.000000 0.000000 
-0.550254 -0.459266 0.131995 0.000000 0.000000 0.000000 
-0.779032 -0.710892 0.181214 0.000000 0.000000 0.000000 
-0.339734 -0.558821 -0.180036 0.000000 0.000000 0.000000 
-0.326348 -0.555893 -0.007584 0.000000 0.000000 0.000000 
-0.392393 -0.354885 -0.094939 0.000000 0.000000 0.000000 
-0.593442 -0.345784 -0.068231 0.000000 0.000000 0.000000 
-0.497892 -0.441313 -0.002935 0.000000 0.000000 0.000000 
-0.262678 -0.563427 0.100062 0.000000 0.000000 0.000000 
-0.316603 -0.552840 0.127989 0.000000 0.000000 0.000000 
-0.085072 -0.439247 0.007827 0.000000 0.000000 0.000000 
-0.260077 -0.567906 0.112984 0.000000 0.000000 0.000000 
-0.094995 -0.435699 0.006674 0.000000 0.000000 0.000000 
-0.256687 -0.562014 0.079822 0.000000 0.000000 0.000000 
-0.305690 -0.559207 0.015884 0.000000 0.000000 0.000000 
-0.123438 -0.576079 0.095226 0.000000 0.000000 0.000000 
-0.156555 -0.575140 0.091392 0.000000 0.000000 0.000000 
-0.398496 -0.427908 -0.083197 0.000000 0.000000 0.000000 
-0.445921 -0.449551 0.031870 0.000000 0.000000 0.000000 
-0.257131 -0.563907 0.112159 0.000000 0.000000 0.000000 
-0.523326 -0.496250 0.012811 0.000000 0.000000 0.000000 
-0.333569 -0.410017 -0.172624 0.000000 0.000000 0.000000 
-0.436388 -0.440901 0.032431 0.000000 0.000000 0.000000 
-0.164732 -0.454148 -0.162574 0.000000 0.000000 0.000000 
-0.437729 -0.503684 0.033824 0.000000 0.000000 0.000000 
-0.425016 -0.497633 0.007254 0.000000 0.000000 0.000000 
-0.411313 -0.443147 -0.069051 0.000000 0.000000 0.000000 
-0.331025 -0.406896 -0.170149 0.000000 0.000000 0.000000 
-0.324479 -0.413625 -0.170507 0.000000 0.000000 0.000000 
-0.136939 -0.518060 -0.185273 0.000000 0.000000 0.000000 
-0.412214 -0.476598 0.033980 0.000000 0.000000 0.000000 
-0.455526 -0.525515 0.009593 0.000000 0.000000 0.000000 
-1.078780 -0.327612 -0.118354 0.000000 0.000000 0.000000 
-0.009585 0.714240 -0.000558 0.000000 0.000000 0.000000 
0.115912 0.581685 0.000404 0.000000 0.000000 0.000000 
0.244856 0.785356 0.010317 0.000000 0.000000 0.000000 
0.303554 0.676287 0.061806 0.000000 0.000000 0.000000 
0.281162 0.755988 0.165186 0.000000 0.000000 0.000000 
0.540045 0.629500 0.116717 0.000000 0.000000 0.000000 
-0.926270 -0.689033 0.259209 0.000000 0.000000 0.000000 
-0.570417 -0.345823 -0.039235 0.000000 0.000000 0.000000 
-1.448260 0.067236 0.089726 0.000000 0.000000 0.000000 
-1.430810 0.164089 -0.055893 0.000000 0.000000 0.000000 
-1.507180 0.628634 0.088785 0.000000 0.000000 0.000000 
-1.397270 -0.077942 0.007288 0.000000 0.000000 0.000000 
-1.348770 0.510327 0.103429 0.000000 0.000000 0.000000 
-1.422390 0.180155 -0.141084 0.000000 0.000000 0.000000 
-0.319316 -0.424047 -0.166778 0.000000 0.000000 0.000000 
-0.319845 -0.561446 0.066094 0.000000 0.000000 0.000000 
-0.496756 -0.523692 -0.233795 0.000000 0.000000 0.000000 
-0.553643 -0.553669 0.065678 0.000000 0.000000 0.000000 
-0.398980 -0.422044 -0.022851 0.000000 0.000000 0.000000 
-0.385754 -0.412008 -0.018775 0.000000 0.000000 0.000000 
-0.396612 -0.450180 -0.187387 0.000000 0.000000 0.000000 
-0.318966 -0.553766 0.121517 0.000000 0.000000 0.000000 
-0.391784 -0.436010 -0.164096 0.000000 0.000000 0.000000 
-0.099600 -0.434352 0.034203 0.000000 0.000000 0.000000 
-0.388541 -0.440976 -0.181525 0.000000 0.000000 0.000000 
-0.117282 -0.498921 -0.014915 0.000000 0.000000 0.000000 
-0.403651 -0.452446 -0.167390 0.000000 0.000000 0.000000 
-1.295020 -0.232483 -0.075189 0.000000 0.000000 0.000000 
-1.191230 -0.276426 -0.037249 0.000000 0.000000 0.000000 
-1.329370 -0.309056 0.095364 0.000000 0.000000 0.000000 
-1.353960 -0.228505 -0.136315 0.000000 0.000000 0.000000 
-1.466240 -0.372188 -0.183437 0.000000 0.000000 0.000000 
-1.402600 -0.279835 0.076458 0.000000 0.000000 0.000000 
-1.027860 -0.464775 0.063110 0.000000 0.000000 0.000000 
-0.737750 -0.569571 0.081420 0.000000 0.000000 0.000000 
-1.182750 -0.276389 -0.066209 0.000000 0.000000 0.000000 
-1.309400 -0.413201 0.115393 0.000000 0.000000 0.000000 
-1.525440 -0.470015 0.174287 0.000000 0.000000 0.000000 
-1.448930 -0.402217 -0.121715 0.000000 0.000000 0.000000 
-1.226930 -0.441401 0.058961 0.000000 0.000000 0.000000 
-1.582780 -0.474128 0.104354 0.000000 0.000000 0.000000 
-1.307960 -0.299525 -0.003068 0.000000 0.000000 0.000000 
-1.146380 -0.416254 -0.126030 0.000000 0.000000 0.000000 
-0.763272 -0.471959 0.092484 0.000000 0.000000 0.000000 
-1.546940 -0.531062 -0.223992 0.000000 0.000000 0.000000 
-0.749382 -0.476825 0.013204 0.000000 0.000000 0.000000 
-0.288233 -0.377242 0.000487 0.000000 0.000000 0.000000 
-0.410990 -0.484281 0.169204 0.000000 0.000000 0.000000 
-0.527066 -0.421500 0.044183 0.000000 0.000000 0.000000 
-1.359690 0.673479 0.281937 0.000000 0.000000 0.000000 
-0.713775 0.498441 0.011139 0.000000 0.000000 0.000000 
-0.746451 -0.455902 0.085471 0.000000 0.000000 0.000000 
-0.835475 -0.431813 -0.002603 0.000000 0.000000 0.000000 
-0.752262 -0.543299 0.196742 0.000000 0.000000 0.000000 
-0.540459 -0.515582 -0.004444 0.000000 0.000000 0.000000 
-0.747173 -0.417268 0.013579 0.000000 0.000000 0.000000 
-0.374641 -0.347551 -0.067197 0.000000 0.000000 0.000000 
-0.587812 -0.306832 0.048309 0.000000 0.000000 0.000000 
-0.598976 -0.506014 0.019513 0.000000 0.000000 0.000000 
-0.198189 -0.495147 -0.041795 0.000000 0.000000 0.000000 
-0.432052 -0.318429 0.030502 0.000000 0.000000 0.000000 
-0.513015 -0.469720 0.003225 0.000000 0.000000 0.000000 
-0.373706 -0.399869 -0.036556 0.000000 0.000000 0.000000 
-1.520630 0.243981 0.314521 0.000000 0.000000 0.000000 
-0.961597 -0.286485 -0.030061 0.000000 0.000000 0.000000 
-0.486197 -0.386592 -0.107738 0.000000 0.000000 0.000000 
0.907566 -0.421379 -0.065761 0.000000 0.000000 0.000000 
-0.376568 -0.309939 0.037632 0.000000 0.000000 0.000000 
-0.462687 -0.327691 -0.182521 0.000000 0.000000 0.000000 
-0.428980 -0.500166 0.145520 0.000000 0.000000 0.000000 
-0.419420 -0.309978 -0.152384 0.000000 0.000000 0.000000 
-1.189910 -0.207291 0.053819 0.000000 0.000000 0.000000 
-1.326440 0.429050 0.009727 0.000000 0.000000 0.000000 
-0.855019 0.446331 -0.086840 0.000000 0.000000 0.000000 
-1.318830 0.433771 0.309403 0.000000 0.000000 0.000000 
-1.117740 0.481799 0.138537 0.000000 0.000000 0.000000 
-1.467630 0.643894 0.130093 0.000000 0.000000 0.000000 
-1.520800 0.429254 0.267632 0.000000 0.000000 0.000000 
-0.280918 -0.017196 0.006555 0.000000 0.000000 0.000000 
-0.654697 -0.501206 0.115423 0.000000 0.000000 0.000000 
-0.134698 -0.461757 -0.089141 0.000000 0.000000 0.000000 
-0.670154 -0.587647 0.175528 0.000000 0.000000 0.000000 
-0.703556 -0.521902 0.017977 0.000000 0.000000 0.000000 
-0.494364 -0.374937 -0.151540 0.000000 0.000000 0.000000 
-0.594244 -0.464366 -0.001238 0.000000 0.000000 0.000000 
-0.505707 -0.390956 -0.169227 0.000000 0.000000 0.000000 
-0.432638 -0.501455 0.026440 0.000000 0.000000 0.000000 
-0.340455 -0.421983 -0.176302 0.000000 0.000000 0.000000 
-0.351137 -0.424083 -0.175463 0.000000 0.000000 0.000000 
-0.424263 -0.426413 0.005970 0.000000 0.000000 0.000000 
-0.513020 -0.497132 0.000398 0.000000 0.000000 0.000000 
-0.450233 -0.383765 -0.018994 0.000000 0.000000 0.000000 
-0.769898 -0.570804 0.083325 0.000000 0.000000 0.000000 
-0.392818 -0.366432 -0.097711 0.000000 0.000000 0.000000 
-0.430061 -0.302454 -0.162306 0.000000 0.000000 0.000000 
-0.466507 -0.323453 -0.170213 0.000000 0.000000 0.000000 
-0.438529 -0.341228 0.124032 0.000000 0.000000 0.000000 
-0.422809 -0.435234 -0.067555 0.000000 0.000000 0.000000 
-0.483077 -0.402174 -0.026745 0.000000 0.000000 0.000000 
-0.432528 -0.519399 0.010371 0.000000 0.000000 0.000000 
-0.464982 -0.325657 -0.162168 0.000000 0.000000 0.000000 
-0.464801 -0.331184 -0.170612 0.000000 0.000000 0.000000 
-0.401797 -0.444088 -0.182885 0.000000 0.000000 0.000000 
-0.425083 -0.565507 -0.162429 0.000000 0.000000 0.000000 
-0.424683 -0.395842 -0.113921 0.000000 0.000000 0.000000 
-0.715864 -0.541834 0.034884 0.000000 0.000000 0.000000 
-0.565561 -0.504166 0.020416 0.000000 0.000000 0.000000 
-0.380580 -0.508690 0.007231 0.000000 0.000000 0.000000 
-0.366899 -0.493997 0.010996 0.000000 0.000000 0.000000 
-0.871183 -0.485615 -0.014965 0.000000 0.000000 0.000000 
-0.504540 -0.446189 -0.005180 0.000000 0.000000 0.000000 
-0.538315 -0.537229 0.035693 0.000000 0.000000 0.000000 
-0.775471 -0.460343 0.083675 0.000000 0.000000 0.000000 
-0.764696 -0.446661 0.037985 0.000000 0.000000 0.000000 
-0.836460 -0.475064 0.105298 0.000000 0.000000 0.000000 
-0.918163 -0.486639 0.023105 0.000000 0.000000 0.000000 
-0.520395 -0.434472 -0.002271 0.000000 0.000000 0.000000 
-0.465943 -0.382454 -0.001150 0.000000 0.000000 0.000000 
-0.496048 -0.418779 0.006187 0.000000 0.000000 0.000000 
-0.426211 -0.373157 -0.148851 0.000000 0.000000 0.000000 
-0.521417 -0.491490 0.010781 0.000000 0.000000 0.000000 
-0.447922 -0.509404 0.025906 0.000000 0.000000 0.000000 
1.082300 0.098648 0.042566 0.000000 0.000000 0.000000 
0.903379 0.428221 -0.083460 0.000000 0.000000 0.000000 
1.025500 0.374806 -0.108172 0.000000 0.000000 0.000000 
0.834496 0.341041 -0.076569 0.000000 0.000000 0.000000 
1.083040 0.111223 0.124841 0.000000 0.000000 0.000000 
0.878428 0.394064 -0.124601 0.000000 0.000000 0.000000 
0.824387 0.319379 -0.052129 0.000000 0.000000 0.000000 
1.044940 0.093095 -0.002639 0.000000 0.000000 0.000000 
1.095230 0.230911 -0.155315 0.000000 0.000000 0.000000 
1.160840 0.277161 0.119583 0.000000 0.000000 0.000000 
1.089160 0.094099 0.042852 0.000000 0.000000 0.000000 
1.068360 0.182673 0.161824 0.000000 0.000000 0.000000 
1.097760 0.151845 0.137899 0.000000 0.000000 0.000000 
1.127750 0.297003 0.012216 0.000000 0.000000 0.000000 
1.043320 0.315816 0.027647 0.000000 0.000000 0.000000 
1.113900 0.267586 0.030425 0.000000 0.000000 0.000000 
1.077800 0.651482 0.098964 0.000000 0.000000 0.000000 
1.094800 0.185959 0.027601 0.000000 0.000000 0.000000 
1.037790 0.539981 -0.173244 0.000000 0.000000 0.000000 
1.086000 0.177210 -0.145131 0.000000 0.000000 0.000000 
-1.284740 0.415776 -0.106238 0.000000 0.000000 0.000000 
-1.470720 0.180366 -0.097667 0.000000 0.000000 0.000000 
-0.585201 -0.369697 -0.087163 0.000000 0.000000 0.000000 
-0.657661 -0.391962 -0.015899 0.000000 0.000000 0.000000 
-0.611571 -0.333423 -0.098185 0.000000 0.000000 0.000000 
-1.237810 -0.353362 -0.127141 0.000000 0.000000 0.000000 
0.046804 0.629308 0.000487 0.000000 0.000000 0.000000 
0.528272 0.633829 0.094656 0.000000 0.000000 0.000000 
0.357295 0.332755 -0.068309 0.000000 0.000000 0.000000 
0.235334 0.792253 -0.098215 0.000000 0.000000 0.000000 
0.230259 0.798077 -0.072270 0.000000 0.000000 0.000000 
0.365227 0.348396 -0.044896 0.000000 0.000000 0.000000 
-1.227760 -0.304868 -0.068016 0.000000 0.000000 0.000000 
-0.730438 -0.320808 0.047315 0.000000 0.000000 0.000000 
-0.581899 -0.282334 0.046590 0.000000 0.000000 0.000000 
-1.133510 -0.390194 -0.171634 0.000000 0.000000 0.000000 
-0.464182 -0.363685 -0.153238 0.000000 0.000000 0.000000 
-0.150561 -0.643114 -0.163837 0.000000 0.000000 0.000000 
-0.383094 -0.438576 -0.162884 0.000000 0.000000 0.000000 
-0.484338 -0.385032 -0.159031 0.000000 0.000000 0.000000 
-0.566603 -0.495340 0.096787 0.000000 0.000000 0.000000 
-0.512996 -0.381880 -0.156942 0.000000 0.000000 0.000000 
-0.485832 -0.373294 -0.153920 0.000000 0.000000 0.000000 
-0.703323 -0.535694 0.027777 0.000000 0.000000 0.000000 
-0.567597 -0.500681 0.020830 0.000000 0.000000 0.000000 
-0.555328 -0.496330 0.010591 0.000000 0.000000 0.000000 
-0.562553 -0.507338 0.000447 0.000000 0.000000 0.000000 
-0.616969 -0.506090 0.022860 0.000000 0.000000 0.000000 
-0.388724 -0.356263 -0.094880 0.000000 0.000000 0.000000 
-0.487520 -0.380316 -0.136406 0.000000 0.000000 0.000000 
-0.564601 -0.510607 0.095870 0.000000 0.000000 0.000000 
-0.571042 -0.497964 0.096083 0.000000 0.000000 0.000000 
-0.374710 -0.342134 -0.078067 0.000000 0.000000 0.000000 
-0.499195 -0.565172 0.170844 0.000000 0.000000 0.000000 
-0.839864 -0.593791 0.182068 0.000000 0.000000 0.000000 
-0.412470 -0.475141 -0.008237 0.000000 0.000000 0.000000 
-0.614242 -0.371154 -0.120010 0.000000 0.000000 0.000000 
-0.745720 -0.358176 -0.064245 0.000000 0.000000 0.000000 
0.809972 -0.311000 0.032425 0.000000 0.000000 0.000000 
-1.135720 -0.528078 0.314137 0.000000 0.000000 0.000000 
-0.485711 -0.390984 -0.071321 0.000000 0.000000 0.000000 
-0.627705 -0.379628 -0.107176 0.000000 0.000000 0.000000 
-0.262937 -0.514819 -0.098718 0.000000 0.000000 0.000000 
-0.755268 -0.464319 0.073627 0.000000 0.000000 0.000000 
-0.794377 -0.473882 0.096597 0.000000 0.000000 0.000000 
-0.547673 -0.387437 0.024302 0.000000 0.000000 0.000000 
-0.791285 -0.457957 0.084199 0.000000 0.000000 0.000000 
-0.421767 -0.490404 0.030420 0.000000 0.000000 0.000000 
-0.578964 -0.534776 -0.003375 0.000000 0.000000 0.000000 
-0.681693 -0.597006 0.165598 0.000000 0.000000 0.000000 
-0.625672 -0.308921 -0.157693 0.000000 0.000000 0.000000 
-0.712927 -0.539537 0.028268 0.000000 0.000000 0.000000 
-0.782154 -0.559067 0.145322 0.000000 0.000000 0.000000 
-0.770993 -0.460531 0.096231 0.000000 0.000000 0.000000 
-1.069880 -0.516586 0.003434 0.000000 0.000000 0.000000 
-1.430420 0.043133 0.009319 0.000000 0.000000 0.000000 
-1.451140 0.254450 -0.005880 0.000000 0.000000 0.000000 
-1.313200 0.535290 -0.086343 0.000000 0.000000 0.000000 
-0.994117 0.496468 0.223705 0.000000 0.000000 0.000000 
-1.441970 0.133098 -0.116095 0.000000 0.000000 0.000000 
-1.472310 0.596290 0.010031 0.000000 0.000000 0.000000 
-0.398170 -0.399355 -0.075859 0.000000 0.000000 0.000000 
-0.423096 -0.399947 -0.113214 0.000000 0.000000 0.000000 
-0.546181 -0.369565 -0.081017 0.000000 0.000000 0.000000 
-0.539860 -0.365315 -0.048821 0.000000 0.000000 0.000000 
-0.639985 -0.416647 -0.140279 0.000000 0.000000 0.000000 
-0.645202 -0.649006 0.152885 0.000000 0.000000 0.000000 
-0.391358 -0.361003 -0.170480 0.000000 0.000000 0.000000 
-0.624559 -0.560484 0.166706 0.000000 0.000000 0.000000 
-0.583217 -0.507442 0.020108 0.000000 0.000000 0.000000 
-0.534286 -0.480597 -0.011819 0.000000 0.000000 0.000000 
-0.186960 -0.535866 -0.020201 0.000000 0.000000 0.000000 
-0.283214 -0.366188 0.093250 0.000000 0.000000 0.000000 
-0.154895 -0.572137 0.073480 0.000000 0.000000 0.000000 
-0.306970 -0.582390 0.148616 0.000000 0.000000 0.000000 
-0.218373 -0.539553 -0.047708 0.000000 0.000000 0.000000 
-0.568785 -0.567576 0.074146 0.000000 0.000000 0.000000 
-0.712469 -0.524564 0.061916 0.000000 0.000000 0.000000 
-0.562033 -0.429237 0.013081 0.000000 0.000000 0.000000 
-0.725317 -0.542736 0.023711 0.000000 0.000000 0.000000 
-0.431298 -0.348685 -0.114181 0.000000 0.000000 0.000000 
-1.613670 0.241627 0.310532 0.000000 0.000000 0.000000 
-1.617930 0.125717 0.278078 0.000000 0.000000 0.000000 
-1.434630 0.076286 -0.046526 0.000000 0.000000 0.000000 
0.792902 -0.633795 0.008109 0.000000 0.000000 0.000000 
0.825857 -0.633165 0.022165 0.000000 0.000000 0.000000 
0.796046 -0.635047 0.019750 0.000000 0.000000 0.000000 
0.826019 -0.634342 0.021675 0.000000 0.000000 0.000000 
-1.613480 -0.320903 -0.087288 0.000000 0.000000 0.000000 
-0.467055 -0.326666 -0.162605 0.000000 0.000000 0.000000 
-0.608222 -0.319935 -0.128621 0.000000 0.000000 0.000000 
-1.282710 -0.324415 0.006929 0.000000 0.000000 0.000000 
-1.529370 -0.468583 0.243421 0.000000 0.000000 0.000000 
-0.583103 -0.324701 -0.091106 0.000000 0.000000 0.000000 
-1.541030 -0.357855 0.018849 0.000000 0.000000 0.000000 
-1.441110 -0.406722 -0.131876 0.000000 0.000000 0.000000 
-1.396500 -0.345665 -0.102370 0.000000 0.000000 0.000000 
-1.399680 -0.101910 -0.100434 0.000000 0.000000 0.000000 
-1.423140 -0.072867 -0.120849 0.000000 0.000000 0.000000 
-1.384870 -0.111496 0.014178 0.000000 0.000000 0.000000 
-0.660861 -0.298328 0.051612 0.000000 0.000000 0.000000 
-1.217110 0.545361 0.021249 0.000000 0.000000 0.000000 
-1.505870 0.391415 0.040103 0.000000 0.000000 0.000000 
-1.261150 0.514250 -0.008999 0.000000 0.000000 0.000000 
-1.497860 0.607947 -0.055222 0.000000 0.000000 0.000000 
-1.591650 0.453473 0.245304 0.000000 0.000000 0.000000 
-0.674087 0.491590 0.149629 0.000000 0.000000 0.000000 
-0.719983 -0.349429 -0.042388 0.000000 0.000000 0.000000 
-0.528283 -0.445680 -0.217048 0.000000 0.000000 0.000000 
-0.621643 -0.320386 0.051748 0.000000 0.000000 0.000000 
-1.359200 -0.305693 0.008608 0.000000 0.000000 0.000000 
-0.555758 -0.338281 -0.084312 0.000000 0.000000 0.000000 
-0.591305 -0.345438 -0.067384 0.000000 0.000000 0.000000 
-1.357430 -0.250487 -0.070552 0.000000 0.000000 0.000000 
-0.788740 -0.453528 0.096764 0.000000 0.000000 0.000000 
-1.325510 -0.371852 0.024548 0.000000 0.000000 0.000000 
-1.246560 -0.324107 -0.133103 0.000000 0.000000 0.000000 
-1.190760 -0.446703 -0.213669 0.000000 0.000000 0.000000 
-0.986305 -0.430830 -0.138982 0.000000 0.000000 0.000000 
-0.406432 -0.509785 0.005023 0.000000 0.000000 0.000000 
-0.981190 -0.358660 -0.073539 0.000000 0.000000 0.000000 
-0.493249 0.765538 0.203743 0.000000 0.000000 0.000000 
-0.553506 0.864210 -0.112439 0.000000 0.000000 0.000000 
-0.706307 0.897342 0.235871 0.000000 0.000000 0.000000 
-0.687690 0.873758 -0.121692 0.000000 0.000000 0.000000 
-0.620229 -0.308455 -0.148141 0.000000 0.000000 0.000000 
-0.757225 -0.494369 0.003779 0.000000 0.000000 0.000000 
-0.687723 -0.476567 -0.007620 0.000000 0.000000 0.000000 
-0.672823 -0.307838 0.023783 0.000000 0.000000 0.000000 
-0.577735 -0.405243 0.018377 0.000000 0.000000 0.000000 
-0.575168 -0.428542 -0.017628 0.000000 0.000000 0.000000 
-0.387304 -0.538970 -0.011127 0.000000 0.000000 0.000000 
-0.703026 -0.345156 -0.132642 0.000000 0.000000 0.000000 
-0.833415 -0.364254 -0.171693 0.000000 0.000000 0.000000 
-0.644301 -0.307838 -0.175969 0.000000 0.000000 0.000000 
-0.731236 -0.331625 0.037855 0.000000 0.000000 0.000000 
-0.829302 -0.387634 -0.073620 0.000000 0.000000 0.000000 
-1.379910 0.100546 0.260634 0.000000 0.000000 0.000000 
-1.503880 0.429029 0.271275 0.000000 0.000000 0.000000 
-0.719023 0.479831 -0.080441 0.000000 0.000000 0.000000 
-0.979367 0.443009 0.234683 0.000000 0.000000 0.000000 
-0.729422 0.487014 -0.103280 0.000000 0.000000 0.000000 
-1.404110 -0.074526 0.043553 0.000000 0.000000 0.000000 
-1.008380 -0.394182 -0.152815 0.000000 0.000000 0.000000 
-0.393864 -0.301088 0.040551 0.000000 0.000000 0.000000 
-0.713743 -0.567770 0.082306 0.000000 0.000000 0.000000 
-0.599113 -0.610319 0.142723 0.000000 0.000000 0.000000 
-0.591873 -0.473862 0.006571 0.000000 0.000000 0.000000 
-0.565250 -0.348666 -0.176008 0.000000 0.000000 0.000000 
-0.186941 -0.475737 -0.086019 0.000000 0.000000 0.000000 
-0.582932 -0.376377 -0.092694 0.000000 0.000000 0.000000 
-0.601338 -0.370320 -0.114890 0.000000 0.000000 0.000000 
-0.608745 -0.407861 -0.100001 0.000000 0.000000 0.000000 
-0.719601 -0.350258 -0.122604 0.000000 0.000000 0.000000 
-0.818279 -0.458683 0.019736 0.000000 0.000000 0.000000 
-1.014820 -0.835986 0.242192 0.000000 0.000000 0.000000 
-0.782754 -0.461194 0.042130 0.000000 0.000000 0.000000 
-0.521954 -0.342229 -0.116169 0.000000 0.000000 0.000000 
-0.754660 -0.487193 0.004704 0.000000 0.000000 0.000000 
-1.018830 -0.542230 -0.115215 0.000000 0.000000 0.000000 
-0.740937 -0.455457 0.084362 0.000000 0.000000 0.000000 
-0.782769 -0.453575 0.080161 0.000000 0.000000 0.000000 
-0.830454 -0.452517 0.034958 0.000000 0.000000 0.000000 
-0.764294 -0.435012 0.024838 0.000000 0.000000 0.000000 
-0.525254 -0.507084 -0.001642 0.000000 0.000000 0.000000 
-0.430048 -0.528442 0.006251 0.000000 0.000000 0.000000 
-0.489863 -0.396448 -0.025957 0.000000 0.000000 0.000000 
-0.430506 -0.450061 -0.009151 0.000000 0.000000 0.000000 
-0.366338 -0.311876 0.033681 0.000000 0.000000 0.000000 
-1.230880 -0.378028 0.002285 0.000000 0.000000 0.000000 
-1.412380 -0.349782 -0.137304 0.000000 0.000000 0.000000 
-1.263260 -0.289161 -0.118013 0.000000 0.000000 0.000000 
-0.604178 -0.538611 0.123721 0.000000 0.000000 0.000000 
-1.150100 -0.265815 -0.059328 0.000000 0.000000 0.000000 
-1.269110 -0.357864 0.035273 0.000000 0.000000 0.000000 
-1.155230 -0.278463 0.043596 0.000000 0.000000 0.000000 
-1.636080 -0.505180 0.312706 0.000000 0.000000 0.000000 
-1.425420 -0.397108 -0.049498 0.000000 0.000000 0.000000 
-1.504550 -0.459233 0.241330 0.000000 0.000000 0.000000 
-1.431940 -0.399974 0.019426 0.000000 0.000000 0.000000 
-0.641603 -0.314871 -0.174116 0.000000 0.000000 0.000000 
-0.470973 -0.305354 0.031191 0.000000 0.000000 0.000000 
-0.584657 -0.438813 0.018911 0.000000 0.000000 0.000000 
-1.085010 -0.452602 -0.093862 0.000000 0.000000 0.000000 
-0.825651 -0.360537 -0.171031 0.000000 0.000000 0.000000 
-1.081210 -0.483580 0.048462 0.000000 0.000000 0.000000 
-0.424714 -0.564109 -0.178376 0.000000 0.000000 0.000000 
-0.641713 -0.309176 -0.158442 0.000000 0.000000 0.000000 
-0.407563 -0.409635 -0.080773 0.000000 0.000000 0.000000 
-0.379363 -0.423473 -0.024653 0.000000 0.000000 0.000000 
-0.405019 -0.422238 -0.058780 0.000000 0.000000 0.000000 
-0.615312 -0.468455 0.007522 0.000000 0.000000 0.000000 
-0.987362 0.449265 0.268351 0.000000 0.000000 0.000000 
-1.283120 0.618663 0.255824 0.000000 0.000000 0.000000 
-1.528180 0.393836 0.041264 0.000000 0.000000 0.000000 
-1.473580 0.609929 0.084811 0.000000 0.000000 0.000000 
-1.154660 -0.329787 -0.117838 0.000000 0.000000 0.000000 
-0.476837 -0.383708 -0.157987 0.000000 0.000000 0.000000 
-1.404050 -0.097241 0.017064 0.000000 0.000000 0.000000 
-1.406400 -0.037005 -0.035359 0.000000 0.000000 0.000000 
-1.384330 0.443542 0.200426 0.000000 0.000000 0.000000 
-1.470690 0.596270 -0.025158 0.000000 0.000000 0.000000 
-1.475200 0.261502 -0.032281 0.000000 0.000000 0.000000 
-1.373870 0.469139 0.161614 0.000000 0.000000 0.000000 
-1.454920 0.489525 -0.150568 0.000000 0.000000 0.000000 
-1.493120 0.512419 -0.083042 0.000000 0.000000 0.000000 
-1.233760 0.534331 0.146999 0.000000 0.000000 0.000000 
-1.492950 0.475543 0.005878 0.000000 0.000000 0.000000 
-1.501600 0.546526 0.010063 0.000000 0.000000 0.000000 
-1.494600 0.562635 0.009090 0.000000 0.000000 0.000000 
-1.480440 0.499081 -0.004738 0.000000 0.000000 0.000000 
-1.398460 -0.034607 -0.062462 0.000000 0.000000 0.000000 
-1.111410 0.372675 -0.069557 0.000000 0.000000 0.000000 
0.827833 -0.642483 0.034727 0.000000 0.000000 0.000000 
0.763728 -0.662398 0.032934 0.000000 0.000000 0.000000 
-1.475290 0.332460 -0.110674 0.000000 0.000000 0.000000 
-1.322120 0.437833 -0.002111 0.000000 0.000000 0.000000 
-1.476110 0.374348 -0.146214 0.000000 0.000000 0.000000 
-1.534400 0.362686 0.044572 0.000000 0.000000 0.000000 
-1.393410 -0.039108 0.011361 0.000000 0.000000 0.000000 
-1.577110 0.352888 0.333353 0.000000 0.000000 0.000000 
-1.297270 0.546374 0.074381 0.000000 0.000000 0.000000 
-0.876910 0.677015 0.178227 0.000000 0.000000 0.000000 
-0.639606 0.799955 -0.110250 0.000000 0.000000 0.000000 
-1.603310 0.077459 0.176779 0.000000 0.000000 0.000000 
-1.090630 -0.511069 0.334840 0.000000 0.000000 0.000000 
-1.337930 -0.031513 0.351945 0.000000 0.000000 0.000000 
-0.752146 0.566654 0.150346 0.000000 0.000000 0.000000 
-0.702960 0.493211 -0.090429 0.000000 0.000000 0.000000 
-1.505780 0.281439 -0.043536 0.000000 0.000000 0.000000 
-1.402800 0.008534 0.086556 0.000000 0.000000 0.000000 
-1.582660 0.080062 0.087585 0.000000 0.000000 0.000000 
-0.582484 -0.353639 -0.086923 0.000000 0.000000 0.000000 
-0.606497 -0.384923 -0.100279 0.000000 0.000000 0.000000 
-0.786182 -0.468801 0.096387 0.000000 0.000000 0.000000 
-0.496169 -0.370772 0.024741 0.000000 0.000000 0.000000 
-0.422223 -0.344485 0.017429 0.000000 0.000000 0.000000 
-0.584060 -0.344323 0.044126 0.000000 0.000000 0.000000 
-0.637115 -0.301812 -0.177154 0.000000 0.000000 0.000000 
-0.756821 -0.439516 0.072503 0.000000 0.000000 0.000000 
-0.532857 -0.490398 0.012313 0.000000 0.000000 0.000000 
-0.499926 -0.570733 0.050985 0.000000 0.000000 0.000000 
-0.647439 -0.329295 -0.099048 0.000000 0.000000 0.000000 
-0.518667 -0.508015 0.095887 0.000000 0.000000 0.000000 
-0.976802 -0.334977 -0.158410 0.000000 0.000000 0.000000 
-1.042780 -0.366514 -0.154251 0.000000 0.000000 0.000000 
-0.985494 -0.334286 -0.161494 0.000000 0.000000 0.000000 
-0.635412 -0.292752 0.031418 0.000000 0.000000 0.000000 
-1.411750 -0.037609 -0.033367 0.000000 0.000000 0.000000 
-1.437180 0.053926 0.076887 0.000000 0.000000 0.000000 
-1.372630 0.440396 0.003688 0.000000 0.000000 0.000000 
-1.291390 0.456359 0.019691 0.000000 0.000000 0.000000 
-1.450440 0.250103 -0.138194 0.000000 0.000000 0.000000 
-1.162040 0.495450 0.062580 0.000000 0.000000 0.000000 
-0.699754 0.489192 0.036703 0.000000 0.000000 0.000000 
-0.671649 -0.354505 -0.174271 0.000000 0.000000 0.000000 
-1.166130 -0.380331 -0.053657 0.000000 0.000000 0.000000 
-0.457677 -0.374163 -0.148782 0.000000 0.000000 0.000000 
-0.606666 -0.466767 -0.008186 0.000000 0.000000 0.000000 
-0.782834 -0.466565 0.009009 0.000000 0.000000 0.000000 
-0.776051 -0.470161 0.110260 0.000000 0.000000 0.000000 
-0.924118 -0.339153 -0.062872 0.000000 0.000000 0.000000 
-0.727658 -0.484273 -0.007422 0.000000 0.000000 0.000000 
-0.599230 -0.358327 -0.143655 0.000000 0.000000 0.000000 
-0.550433 -0.558096 0.066001 0.000000 0.000000 0.000000 
-0.499913 -0.379681 -0.160390 0.000000 0.000000 0.000000 
-0.362318 -0.581440 0.032313 0.000000 0.000000 0.000000 
-0.424469 -0.490755 -0.010400 0.000000 0.000000 0.000000 
-0.681719 -0.596601 0.175824 0.000000 0.000000 0.000000 
-0.741226 -0.458894 0.100218 0.000000 0.000000 0.000000 
-0.495072 -0.490621 0.160498 0.000000 0.000000 0.000000 
-1.355520 0.431591 0.076198 0.000000 0.000000 0.000000 
-1.397400 -0.134947 -0.053237 0.000000 0.000000 0.000000 
-1.366890 -0.247849 -0.035048 0.000000 0.000000 0.000000 
-0.871755 0.443574 -0.091919 0.000000 0.000000 0.000000 
-1.312930 -0.305243 -0.019780 0.000000 0.000000 0.000000 
-0.912044 -0.340175 -0.059996 0.000000 0.000000 0.000000 
-1.285240 -0.346319 -0.038896 0.000000 0.000000 0.000000 
-1.231940 -0.263452 -0.062482 0.000000 0.000000 0.000000 
-1.341070 -0.233659 0.021928 0.000000 0.000000 0.000000 
-1.317310 -0.223253 0.011557 0.000000 0.000000 0.000000 
-0.986986 -0.501881 0.247067 0.000000 0.000000 0.000000 
-1.342430 -0.224977 0.010677 0.000000 0.000000 0.000000 
-0.380899 -0.421741 -0.039018 0.000000 0.000000 0.000000 
-0.808313 -0.501508 0.048234 0.000000 0.000000 0.000000 
-1.305890 -0.222464 -0.152924 0.000000 0.000000 0.000000 
-0.552723 -0.369553 0.018469 0.000000 0.000000 0.000000 
-0.625502 -0.325694 -0.018678 0.000000 0.000000 0.000000 
-0.631744 -0.385868 -0.136821 0.000000 0.000000 0.000000 
-0.878964 -0.454967 0.021668 0.000000 0.000000 0.000000 
-0.622634 -0.315117 -0.160234 0.000000 0.000000 0.000000 
-0.798846 -0.458643 0.108521 0.000000 0.000000 0.000000 
-0.812738 -0.461272 0.094486 0.000000 0.000000 0.000000 
-0.888020 -0.395507 -0.110212 0.000000 0.000000 0.000000 
-1.236450 -0.245729 -0.047116 0.000000 0.000000 0.000000 
-0.694455 0.481775 -0.088054 0.000000 0.000000 0.000000 
-1.114880 -0.245947 -0.137268 0.000000 0.000000 0.000000 
-1.174560 -0.318128 -0.111375 0.000000 0.000000 0.000000 
-1.436820 -0.278126 0.049607 0.000000 0.000000 0.000000 
-0.972145 -0.347224 -0.064864 0.000000 0.000000 0.000000 
-1.448720 0.064084 0.042277 0.000000 0.000000 0.000000 
-0.606901 -0.359811 -0.123684 0.000000 0.000000 0.000000 
-1.181970 -0.371676 0.027831 0.000000 0.000000 0.000000 
-0.795545 -0.467084 0.042676 0.000000 0.000000 0.000000 
-1.112630 -0.324166 -0.115971 0.000000 0.000000 0.000000 
-1.573350 -0.385650 0.293925 0.000000 0.000000 0.000000 
-1.138210 -0.264916 -0.152475 0.000000 0.000000 0.000000 
-1.031960 -0.815993 0.194260 0.000000 0.000000 0.000000 
1.569210 -0.208735 -0.154839 0.000000 0.000000 0.000000 
1.561340 -0.263420 0.055772 0.000000 0.000000 0.000000 
1.527290 -0.264604 0.035342 0.000000 0.000000 0.000000 
1.568250 0.189051 0.179229 0.000000 0.000000 0.000000 
1.629620 -0.448671 0.156203 0.000000 0.000000 0.000000 
1.166760 -0.190944 -0.028785 0.000000 0.000000 0.000000 
1.484340 0.228150 0.111174 0.000000 0.000000 0.000000 
1.523140 0.179761 0.019009 0.000000 0.000000 0.000000 
1.591520 0.078929 0.105112 0.000000 0.000000 0.000000 
1.486050 -0.265869 -0.204746 0.000000 0.000000 0.000000 
1.108520 -0.208642 -0.014505 0.000000 0.000000 0.000000 
1.316250 -0.348355 -0.145525 0.000000 0.000000 0.000000 
1.360070 -0.258952 -0.170133 0.000000 0.000000 0.000000 
-0.561038 -0.555836 0.075496 0.000000 0.000000 0.000000 
-0.706007 -0.441992 -0.150114 0.000000 0.000000 0.000000 
-0.394762 -0.449579 -0.083669 0.000000 0.000000 0.000000 
-0.771420 -0.555343 0.113669 0.000000 0.000000 0.000000 
-1.361460 -0.270066 -0.095718 0.000000 0.000000 0.000000 
-0.846520 -0.514924 0.023577 0.000000 0.000000 0.000000 
-1.203940 -0.505126 0.084909 0.000000 0.000000 0.000000 
-1.327350 -0.290329 0.098155 0.000000 0.000000 0.000000 
-0.742738 -0.325711 0.046189 0.000000 0.000000 0.000000 
-0.876076 -0.426123 0.014451 0.000000 0.000000 0.000000 
-0.324719 -0.425443 -0.017180 0.000000 0.000000 0.000000 
-0.576837 -0.410515 0.010377 0.000000 0.000000 0.000000 
-0.797536 -0.468105 0.026794 0.000000 0.000000 0.000000 
-0.707084 -0.251593 -0.176787 0.000000 0.000000 0.000000 
-1.220850 -0.449021 0.282823 0.000000 0.000000 0.000000 
-0.442970 -0.509979 0.025662 0.000000 0.000000 0.000000 
-0.374562 -0.396283 -0.095360 0.000000 0.000000 0.000000 
-1.218250 -0.233615 -0.109610 0.000000 0.000000 0.000000 
-0.425000 -0.303094 0.034111 0.000000 0.000000 0.000000 
-0.440645 -0.449989 -0.072984 0.000000 0.000000 0.000000 
-1.624800 -0.493959 0.255856 0.000000 0.000000 0.000000 
-1.206300 -0.311680 0.026389 0.000000 0.000000 0.000000 
-1.657500 -0.497497 -0.204224 0.000000 0.000000 0.000000 
-1.316460 -0.325197 -0.118445 0.000000 0.000000 0.000000 
-1.223590 -0.315705 -0.063918 0.000000 0.000000 0.000000 
-1.311030 -0.363800 -0.148161 0.000000 0.000000 0.000000 
-1.522790 -0.446244 0.042502 0.000000 0.000000 0.000000 
-1.160710 -0.339899 -0.017116 0.000000 0.000000 0.000000 
-1.396370 -0.390293 -0.115761 0.000000 0.000000 0.000000 
-1.392770 -0.233440 -0.089706 0.000000 0.000000 0.000000 
-1.099530 -0.473282 0.092320 0.000000 0.000000 0.000000 
-1.403810 -0.440776 0.197551 0.000000 0.000000 0.000000 
-1.158760 -0.251455 -0.034225 0.000000 0.000000 0.000000 
-1.552440 -0.355851 0.016268 0.000000 0.000000 0.000000 
-0.538356 -0.424067 -0.010969 0.000000 0.000000 0.000000 
-0.453229 -0.378997 0.152142 0.000000 0.000000 0.000000 
-0.470653 -0.398337 -0.035940 0.000000 0.000000 0.000000 
-0.620322 -0.363566 -0.079217 0.000000 0.000000 0.000000 
-0.573133 -0.342621 -0.087490 0.000000 0.000000 0.000000 
-1.263970 -0.226501 -0.076425 0.000000 0.000000 0.000000 
-1.072990 -0.305215 -0.020662 0.000000 0.000000 0.000000 
-1.190400 -0.351575 -0.143818 0.000000 0.000000 0.000000 
-1.255810 -0.353636 -0.000432 0.000000 0.000000 0.000000 
-0.572623 -0.347999 -0.133035 0.000000 0.000000 0.000000 
-1.589430 -0.372021 0.008042 0.000000 0.000000 0.000000 
-1.190790 -0.233703 -0.016952 0.000000 0.000000 0.000000 
-0.966931 -0.498792 0.249595 0.000000 0.000000 0.000000 
-1.418290 -0.583375 0.235576 0.000000 0.000000 0.000000 
-0.632179 -0.368731 -0.132240 0.000000 0.000000 0.000000 
-1.209750 -0.511509 0.094033 0.000000 0.000000 0.000000 
-0.790720 -0.570081 0.085631 0.000000 0.000000 0.000000 
-0.609682 -0.666627 0.131913 0.000000 0.000000 0.000000 
-0.733254 -0.355526 -0.139870 0.000000 0.000000 0.000000 
-0.758310 -0.564534 0.142264 0.000000 0.000000 0.000000 
-0.777854 -0.762520 0.148923 0.000000 0.000000 0.000000 
-0.458806 -0.448154 -0.159361 0.000000 0.000000 0.000000 
-0.576205 -0.383577 -0.057559 0.000000 0.000000 0.000000 
-1.183540 -0.291754 -0.000873 0.000000 0.000000 0.000000 
-0.636035 -0.392981 -0.102017 0.000000 0.000000 0.000000 
