0.262740 0.416441 -1.797090 0.000000 0.000000 0.000000 
0.399994 0.640630 -1.575440 0.000000 0.000000 0.000000 
0.357869 0.428477 -1.226710 0.000000 0.000000 0.000000 
0.435872 0.347642 -1.831270 0.000000 0.000000 0.000000 
0.393696 0.536055 -1.578570 0.000000 0.000000 0.000000 
0.393129 0.536705 -1.580110 0.000000 0.000000 0.000000 
0.370841 0.456615 -1.216930 0.000000 0.000000 0.000000 
0.360900 0.434503 -1.225200 0.000000 0.000000 0.000000 
0.337363 0.539837 -1.432550 0.000000 0.000000 0.000000 
0.359997 0.558092 -1.478260 0.000000 0.000000 0.000000 
0.399222 0.724199 -1.737280 0.000000 0.000000 0.000000 
0.269772 0.375213 -1.553310 0.000000 0.000000 0.000000 
0.369110 0.597628 -1.602630 0.000000 0.000000 0.000000 
0.360350 0.602425 -1.622210 0.000000 0.000000 0.000000 
0.404108 0.716053 -1.744490 0.000000 0.000000 0.000000 
0.396141 0.592463 -1.548410 0.000000 0.000000 0.000000 
0.273721 0.584969 -1.933470 0.000000 0.000000 0.000000 
0.362309 0.605224 -1.492810 0.000000 0.000000 0.000000 
0.291261 0.584454 -1.709020 0.000000 0.000000 0.000000 
0.358761 0.550908 -1.454730 0.000000 0.000000 0.000000 
0.282327 0.617424 -1.417920 0.000000 0.000000 0.000000 
0.347190 0.411740 -1.784920 0.000000 0.000000 0.000000 
0.358056 0.388857 -1.235340 0.000000 0.000000 0.000000 
0.394067 0.463110 -1.224300 0.000000 0.000000 0.000000 
0.340092 0.317318 -1.253170 0.000000 0.000000 0.000000 
0.374323 0.665427 -1.547690 0.000000 0.000000 0.000000 
0.385520 0.606374 -1.536250 0.000000 0.000000 0.000000 
0.399864 0.318931 -1.328030 0.000000 0.000000 0.000000 
0.357044 0.575088 -1.472330 0.000000 0.000000 0.000000 
0.301102 0.548245 -1.493990 0.000000 0.000000 0.000000 
0.355024 0.613971 -1.562950 0.000000 0.000000 0.000000 
0.408237 0.669901 -1.568580 0.000000 0.000000 0.000000 
0.407612 0.656775 -1.566300 0.000000 0.000000 0.000000 
0.491659 0.442632 -0.589762 0.000000 0.000000 0.000000 
0.833576 0.275078 -0.427770 0.000000 0.000000 0.000000 
0.667527 0.293814 -0.461950 0.000000 0.000000 0.000000 
0.488335 0.445360 -0.586773 0.000000 0.000000 0.000000 
0.465457 0.606003 -1.267530 0.000000 0.000000 0.000000 
0.335448 0.243988 -0.468072 0.000000 0.000000 0.000000 
0.355868 0.416626 -0.496630 0.000000 0.000000 0.000000 
0.533646 0.319332 -0.589760 0.000000 0.000000 0.000000 
0.521813 0.408366 -0.503179 0.000000 0.000000 0.000000 
0.577926 0.234622 -0.484973 0.000000 0.000000 0.000000 
0.363222 0.518742 -0.923819 0.000000 0.000000 0.000000 
1.028640 0.392366 -1.425830 0.000000 0.000000 0.000000 
1.027950 0.437964 -1.381170 0.000000 0.000000 0.000000 
1.032810 0.415223 -1.491740 0.000000 0.000000 0.000000 
1.028610 0.459482 -1.425570 0.000000 0.000000 0.000000 
1.029880 0.435890 -1.457290 0.000000 0.000000 0.000000 
1.035770 0.381891 -1.521140 0.000000 0.000000 0.000000 
1.035050 0.415498 -1.506200 0.000000 0.000000 0.000000 
1.032430 0.359785 -1.492810 0.000000 0.000000 0.000000 
0.784984 0.273760 -0.457911 0.000000 0.000000 0.000000 
1.010720 0.129614 -0.583302 0.000000 0.000000 0.000000 
1.020380 0.150849 -0.645873 0.000000 0.000000 0.000000 
1.009220 0.141640 -0.640687 0.000000 0.000000 0.000000 
0.148910 0.387914 -0.386459 0.000000 0.000000 0.000000 
0.152906 0.385784 -0.404212 0.000000 0.000000 0.000000 
0.154821 0.303206 -0.425407 0.000000 0.000000 0.000000 
0.316548 0.326609 -0.491087 0.000000 0.000000 0.000000 
0.980034 0.212533 -0.473079 0.000000 0.000000 0.000000 
1.005100 0.212124 -0.496060 0.000000 0.000000 0.000000 
0.217309 0.091892 -0.529341 0.000000 0.000000 0.000000 
0.683292 0.290624 -0.456068 0.000000 0.000000 0.000000 
0.301360 0.088811 -0.522433 0.000000 0.000000 0.000000 
0.436521 0.312443 -0.440667 0.000000 0.000000 0.000000 
0.156791 0.168798 -0.452969 0.000000 0.000000 0.000000 
1.033070 0.218533 -0.516737 0.000000 0.000000 0.000000 
0.347757 0.209451 -0.481945 0.000000 0.000000 0.000000 
0.373516 0.313187 -0.522625 0.000000 0.000000 0.000000 
0.396822 0.319173 -0.504796 0.000000 0.000000 0.000000 
0.707639 0.301072 -0.472074 0.000000 0.000000 0.000000 
0.377101 0.308454 -0.461213 0.000000 0.000000 0.000000 
0.414254 0.299272 -0.478399 0.000000 0.000000 0.000000 
1.021140 0.180203 -0.567044 0.000000 0.000000 0.000000 
0.590039 0.298604 -0.466612 0.000000 0.000000 0.000000 
0.674976 0.296113 -0.457499 0.000000 0.000000 0.000000 
0.591677 0.270821 -0.461168 0.000000 0.000000 0.000000 
0.319590 0.330589 -0.501857 0.000000 0.000000 0.000000 
0.299524 0.337842 -0.469319 0.000000 0.000000 0.000000 
0.714965 0.523217 -0.929248 0.000000 0.000000 0.000000 
0.755538 0.503151 -0.872649 0.000000 0.000000 0.000000 
0.899457 0.413492 -1.012640 0.000000 0.000000 0.000000 
0.154145 0.212761 -0.651041 0.000000 0.000000 0.000000 
0.165532 0.250667 -0.611709 0.000000 0.000000 0.000000 
0.300757 0.186661 -0.493332 0.000000 0.000000 0.000000 
0.162037 0.173036 -0.490770 0.000000 0.000000 0.000000 
0.553327 0.247990 -0.462780 0.000000 0.000000 0.000000 
0.463680 0.281231 -0.457861 0.000000 0.000000 0.000000 
1.001730 0.244467 -0.487557 0.000000 0.000000 0.000000 
0.265200 0.275242 -0.483669 0.000000 0.000000 0.000000 
0.188572 0.125942 -0.509911 0.000000 0.000000 0.000000 
0.373178 0.306907 -0.495462 0.000000 0.000000 0.000000 
0.263862 0.275110 -0.485704 0.000000 0.000000 0.000000 
0.329664 0.306005 -0.466327 0.000000 0.000000 0.000000 
0.428988 0.286532 -0.467379 0.000000 0.000000 0.000000 
0.276546 0.275213 -0.480798 0.000000 0.000000 0.000000 
0.371185 0.603512 -1.540980 0.000000 0.000000 0.000000 
0.361131 0.602795 -1.553240 0.000000 0.000000 0.000000 
0.277605 0.403351 -1.586400 0.000000 0.000000 0.000000 
0.340975 0.672761 -1.541750 0.000000 0.000000 0.000000 
0.361391 0.589857 -1.551580 0.000000 0.000000 0.000000 
0.296150 0.444246 -1.738540 0.000000 0.000000 0.000000 
0.300147 0.555922 -1.525730 0.000000 0.000000 0.000000 
0.281584 0.409590 -1.620110 0.000000 0.000000 0.000000 
0.312267 0.543286 -1.462620 0.000000 0.000000 0.000000 
0.310708 0.609635 -1.419000 0.000000 0.000000 0.000000 
0.687161 0.595074 -1.663370 0.000000 0.000000 0.000000 
0.371664 0.591643 -1.490540 0.000000 0.000000 0.000000 
0.306588 0.544032 -1.463490 0.000000 0.000000 0.000000 
0.312219 0.546537 -1.471860 0.000000 0.000000 0.000000 
0.362300 0.611959 -1.462410 0.000000 0.000000 0.000000 
0.284178 0.358933 -1.536700 0.000000 0.000000 0.000000 
0.288496 0.619345 -1.780250 0.000000 0.000000 0.000000 
1.027810 0.409553 -1.429490 0.000000 0.000000 0.000000 
1.028760 0.399237 -1.466860 0.000000 0.000000 0.000000 
0.738817 0.334766 -2.023520 0.000000 0.000000 0.000000 
0.340380 0.317742 -1.252800 0.000000 0.000000 0.000000 
0.276382 0.479471 -1.962460 0.000000 0.000000 0.000000 
0.331292 0.317432 -1.252830 0.000000 0.000000 0.000000 
0.278724 0.553597 -1.939590 0.000000 0.000000 0.000000 
0.385222 0.463436 -1.216340 0.000000 0.000000 0.000000 
0.507556 0.343000 -1.915900 0.000000 0.000000 0.000000 
0.767194 0.282559 -0.485890 0.000000 0.000000 0.000000 
1.021160 0.226018 -0.549863 0.000000 0.000000 0.000000 
0.971382 -0.004266 -0.578881 0.000000 0.000000 0.000000 
1.022860 0.160121 -0.610599 0.000000 0.000000 0.000000 
1.043430 0.264974 -0.610764 0.000000 0.000000 0.000000 
1.021740 0.245632 -0.587514 0.000000 0.000000 0.000000 
0.320891 0.340559 -0.509308 0.000000 0.000000 0.000000 
0.989635 0.012178 -0.597408 0.000000 0.000000 0.000000 
0.477948 0.335116 -0.551302 0.000000 0.000000 0.000000 
0.356092 0.336225 -1.250410 0.000000 0.000000 0.000000 
0.859387 0.531545 -1.690430 0.000000 0.000000 0.000000 
0.673947 0.549623 -1.688750 0.000000 0.000000 0.000000 
0.505616 0.326124 -1.858010 0.000000 0.000000 0.000000 
0.694679 0.614802 -1.661220 0.000000 0.000000 0.000000 
1.010160 0.338092 -2.001050 0.000000 0.000000 0.000000 
0.741001 0.585237 -1.581010 0.000000 0.000000 0.000000 
0.447177 0.573004 -1.929480 0.000000 0.000000 0.000000 
0.441473 0.432647 -1.864390 0.000000 0.000000 0.000000 
0.509052 0.324647 -1.888300 0.000000 0.000000 0.000000 
0.508119 0.618432 -1.886720 0.000000 0.000000 0.000000 
0.509131 0.589974 -1.890720 0.000000 0.000000 0.000000 
0.885825 0.497799 -1.192870 0.000000 0.000000 0.000000 
0.871757 0.486772 -1.205340 0.000000 0.000000 0.000000 
0.928229 0.407186 -1.056170 0.000000 0.000000 0.000000 
0.167343 0.286949 -0.603931 0.000000 0.000000 0.000000 
0.153513 0.387314 -0.398546 0.000000 0.000000 0.000000 
0.182354 0.158977 -0.639202 0.000000 0.000000 0.000000 
0.166131 0.172481 -0.638840 0.000000 0.000000 0.000000 
0.177634 0.149766 -0.638192 0.000000 0.000000 0.000000 
0.165369 0.182091 -0.634132 0.000000 0.000000 0.000000 
0.165748 0.110518 -0.589382 0.000000 0.000000 0.000000 
0.999064 0.279331 -0.491389 0.000000 0.000000 0.000000 
0.984385 0.228856 -0.445201 0.000000 0.000000 0.000000 
1.010440 0.241026 -0.459581 0.000000 0.000000 0.000000 
0.587002 0.321682 -0.531392 0.000000 0.000000 0.000000 
0.384040 0.398166 -0.456319 0.000000 0.000000 0.000000 
0.780004 0.528424 -0.975582 0.000000 0.000000 0.000000 
0.518191 0.285474 -0.597718 0.000000 0.000000 0.000000 
0.817299 0.232090 -0.447207 0.000000 0.000000 0.000000 
0.489425 0.441949 -0.581972 0.000000 0.000000 0.000000 
0.951941 0.524449 -1.938090 0.000000 0.000000 0.000000 
0.658058 0.698504 -1.641250 0.000000 0.000000 0.000000 
0.567191 0.746136 -1.845340 0.000000 0.000000 0.000000 
0.508858 0.626280 -1.885360 0.000000 0.000000 0.000000 
0.575978 0.683928 -1.859130 0.000000 0.000000 0.000000 
0.480310 0.309425 -1.853210 0.000000 0.000000 0.000000 
0.708070 0.633047 -1.636200 0.000000 0.000000 0.000000 
0.510491 0.563345 -1.916660 0.000000 0.000000 0.000000 
0.556514 0.629869 -1.366890 0.000000 0.000000 0.000000 
0.530509 0.620880 -1.320760 0.000000 0.000000 0.000000 
0.747284 0.626517 -1.562900 0.000000 0.000000 0.000000 
0.486165 0.312374 -1.864140 0.000000 0.000000 0.000000 
0.508469 0.339907 -1.967480 0.000000 0.000000 0.000000 
0.739754 0.634440 -1.651620 0.000000 0.000000 0.000000 
0.552978 0.626568 -1.361600 0.000000 0.000000 0.000000 
0.550898 0.616550 -1.339440 0.000000 0.000000 0.000000 
1.001580 0.336092 -2.012540 0.000000 0.000000 0.000000 
0.866920 0.468621 -1.965730 0.000000 0.000000 0.000000 
1.078640 0.453388 -1.795720 0.000000 0.000000 0.000000 
0.667881 0.744544 -1.840930 0.000000 0.000000 0.000000 
1.077210 0.473606 -1.772620 0.000000 0.000000 0.000000 
0.914066 0.268239 -1.746560 0.000000 0.000000 0.000000 
0.368952 0.726453 -1.782560 0.000000 0.000000 0.000000 
0.266977 0.566324 -1.943120 0.000000 0.000000 0.000000 
0.511582 0.544461 -1.929430 0.000000 0.000000 0.000000 
0.404771 0.607907 -1.542510 0.000000 0.000000 0.000000 
0.333993 0.339017 -1.482180 0.000000 0.000000 0.000000 
0.273286 0.370958 -1.554380 0.000000 0.000000 0.000000 
0.272546 0.385621 -1.599600 0.000000 0.000000 0.000000 
0.307574 0.550674 -1.498230 0.000000 0.000000 0.000000 
0.408058 0.537609 -1.577390 0.000000 0.000000 0.000000 
0.381510 0.670414 -1.537710 0.000000 0.000000 0.000000 
0.264439 0.565821 -1.945160 0.000000 0.000000 0.000000 
0.288951 0.384261 -1.496560 0.000000 0.000000 0.000000 
0.360405 0.599570 -1.469970 0.000000 0.000000 0.000000 
0.280257 0.406683 -1.609670 0.000000 0.000000 0.000000 
0.297235 0.299761 -0.467362 0.000000 0.000000 0.000000 
0.451064 0.430911 -0.552028 0.000000 0.000000 0.000000 
0.690235 0.382224 -0.817599 0.000000 0.000000 0.000000 
0.524510 0.379495 -0.545707 0.000000 0.000000 0.000000 
0.402833 0.285669 -0.479789 0.000000 0.000000 0.000000 
0.379005 0.592010 -1.617980 0.000000 0.000000 0.000000 
0.397700 0.576078 -1.604900 0.000000 0.000000 0.000000 
0.444908 0.677724 -1.556180 0.000000 0.000000 0.000000 
0.405782 0.673183 -1.586410 0.000000 0.000000 0.000000 
0.406198 0.722660 -1.784580 0.000000 0.000000 0.000000 
0.332944 0.523843 -0.965855 0.000000 0.000000 0.000000 
0.327760 0.405618 -0.968015 0.000000 0.000000 0.000000 
0.220838 0.393059 -0.896641 0.000000 0.000000 0.000000 
0.589261 0.468203 -0.670453 0.000000 0.000000 0.000000 
0.607028 0.526170 -0.918446 0.000000 0.000000 0.000000 
0.567510 0.237932 -0.446960 0.000000 0.000000 0.000000 
0.255691 0.407942 -0.439765 0.000000 0.000000 0.000000 
0.187500 0.259957 -0.790970 0.000000 0.000000 0.000000 
0.229488 0.376339 -0.855726 0.000000 0.000000 0.000000 
0.360489 0.303649 -0.476589 0.000000 0.000000 0.000000 
0.490282 0.394142 -0.609939 0.000000 0.000000 0.000000 
1.011060 0.198370 -0.885237 0.000000 0.000000 0.000000 
0.312920 0.667689 -1.923240 0.000000 0.000000 0.000000 
0.272211 0.582858 -1.934630 0.000000 0.000000 0.000000 
0.422285 0.266834 -1.463580 0.000000 0.000000 0.000000 
0.421712 0.275971 -1.467420 0.000000 0.000000 0.000000 
0.409674 0.602243 -1.579630 0.000000 0.000000 0.000000 
0.400569 0.567099 -1.556740 0.000000 0.000000 0.000000 
0.289900 0.398944 -1.518480 0.000000 0.000000 0.000000 
0.248539 0.460507 -1.168330 0.000000 0.000000 0.000000 
0.367812 0.473229 -1.220970 0.000000 0.000000 0.000000 
0.227699 0.348937 -1.107300 0.000000 0.000000 0.000000 
0.243544 0.265143 -1.159090 0.000000 0.000000 0.000000 
0.235410 0.450962 -1.139250 0.000000 0.000000 0.000000 
0.232933 0.348767 -1.106030 0.000000 0.000000 0.000000 
0.238767 0.449662 -1.137930 0.000000 0.000000 0.000000 
0.370251 0.456665 -1.219350 0.000000 0.000000 0.000000 
0.374298 0.466442 -1.217580 0.000000 0.000000 0.000000 
0.230929 0.404484 -1.151800 0.000000 0.000000 0.000000 
0.237083 0.349586 -1.105090 0.000000 0.000000 0.000000 
0.260503 0.307880 -1.253480 0.000000 0.000000 0.000000 
0.379666 0.456413 -1.220420 0.000000 0.000000 0.000000 
0.233026 0.365595 -1.153600 0.000000 0.000000 0.000000 
0.374781 0.457603 -1.218890 0.000000 0.000000 0.000000 
0.345376 0.499124 -1.185930 0.000000 0.000000 0.000000 
0.238814 0.264048 -1.148830 0.000000 0.000000 0.000000 
0.246109 0.460913 -1.168960 0.000000 0.000000 0.000000 
0.232601 0.447396 -1.107380 0.000000 0.000000 0.000000 
0.214975 0.376024 -1.037260 0.000000 0.000000 0.000000 
0.237211 0.330836 -1.246590 0.000000 0.000000 0.000000 
0.382900 0.335204 -0.540845 0.000000 0.000000 0.000000 
0.281269 0.384159 -0.445223 0.000000 0.000000 0.000000 
1.013140 0.323835 -0.859653 0.000000 0.000000 0.000000 
0.793493 0.439466 -1.031320 0.000000 0.000000 0.000000 
0.872720 0.421260 -1.005470 0.000000 0.000000 0.000000 
0.816820 0.252473 -0.507972 0.000000 0.000000 0.000000 
0.801263 0.438331 -1.009530 0.000000 0.000000 0.000000 
0.841745 0.435994 -1.007510 0.000000 0.000000 0.000000 
0.778075 0.442183 -1.007590 0.000000 0.000000 0.000000 
0.235804 0.401624 -1.147060 0.000000 0.000000 0.000000 
0.232029 0.364054 -1.146420 0.000000 0.000000 0.000000 
0.237472 0.407094 -1.175870 0.000000 0.000000 0.000000 
0.240627 0.463532 -1.179060 0.000000 0.000000 0.000000 
0.381424 0.410670 -0.495905 0.000000 0.000000 0.000000 
0.528095 0.310150 -0.578639 0.000000 0.000000 0.000000 
0.578676 0.583763 -1.154580 0.000000 0.000000 0.000000 
0.572152 0.570407 -1.097020 0.000000 0.000000 0.000000 
0.354112 0.507397 -0.864818 0.000000 0.000000 0.000000 
0.524907 0.284264 -0.587855 0.000000 0.000000 0.000000 
0.667454 0.290660 -0.455001 0.000000 0.000000 0.000000 
0.327238 0.418737 -0.501504 0.000000 0.000000 0.000000 
0.251318 0.443629 -1.224740 0.000000 0.000000 0.000000 
0.215567 0.376321 -1.037130 0.000000 0.000000 0.000000 
0.229533 0.348631 -1.105720 0.000000 0.000000 0.000000 
0.235682 0.406722 -1.175860 0.000000 0.000000 0.000000 
0.222922 0.346436 -1.070680 0.000000 0.000000 0.000000 
0.159060 0.404455 -0.426907 0.000000 0.000000 0.000000 
0.168664 0.093913 -0.542870 0.000000 0.000000 0.000000 
0.294572 0.157325 -0.499385 0.000000 0.000000 0.000000 
0.182740 0.224757 -0.666823 0.000000 0.000000 0.000000 
0.168560 0.362606 -0.618456 0.000000 0.000000 0.000000 
0.157052 0.193263 -0.486194 0.000000 0.000000 0.000000 
0.138116 0.309914 -0.442260 0.000000 0.000000 0.000000 
0.184149 0.192272 -0.635788 0.000000 0.000000 0.000000 
0.299527 0.154256 -0.505479 0.000000 0.000000 0.000000 
0.341423 0.172524 -0.491686 0.000000 0.000000 0.000000 
0.166385 0.377264 -0.662629 0.000000 0.000000 0.000000 
0.395827 0.658308 -1.532820 0.000000 0.000000 0.000000 
0.268754 0.398116 -1.566960 0.000000 0.000000 0.000000 
0.275740 0.398364 -1.590590 0.000000 0.000000 0.000000 
0.268146 0.388212 -1.603170 0.000000 0.000000 0.000000 
0.448100 0.562657 -1.944700 0.000000 0.000000 0.000000 
0.334162 0.339087 -1.481680 0.000000 0.000000 0.000000 
0.338379 0.340225 -1.487490 0.000000 0.000000 0.000000 
0.404505 0.605818 -1.541990 0.000000 0.000000 0.000000 
0.409154 0.611247 -1.545960 0.000000 0.000000 0.000000 
0.361342 0.612848 -1.464690 0.000000 0.000000 0.000000 
0.301427 0.553885 -1.522880 0.000000 0.000000 0.000000 
0.379082 0.589581 -1.549610 0.000000 0.000000 0.000000 
0.291748 0.379480 -1.498990 0.000000 0.000000 0.000000 
0.276983 0.400043 -1.586530 0.000000 0.000000 0.000000 
0.409207 0.563916 -1.587960 0.000000 0.000000 0.000000 
0.391570 0.652541 -1.557170 0.000000 0.000000 0.000000 
0.410820 0.646254 -1.556580 0.000000 0.000000 0.000000 
0.401987 0.640428 -1.570780 0.000000 0.000000 0.000000 
0.289458 0.558071 -1.918530 0.000000 0.000000 0.000000 
0.290359 0.596276 -1.925280 0.000000 0.000000 0.000000 
0.398110 0.609812 -1.549880 0.000000 0.000000 0.000000 
0.414186 0.609514 -1.575440 0.000000 0.000000 0.000000 
0.336704 0.539288 -1.433070 0.000000 0.000000 0.000000 
0.323703 0.546270 -1.477530 0.000000 0.000000 0.000000 
0.405057 0.727968 -1.783870 0.000000 0.000000 0.000000 
0.342623 0.435535 -1.835540 0.000000 0.000000 0.000000 
0.380566 0.646294 -1.557700 0.000000 0.000000 0.000000 
0.518832 0.552157 -1.947570 0.000000 0.000000 0.000000 
1.074050 0.445067 -1.731710 0.000000 0.000000 0.000000 
0.754866 0.510297 -1.196830 0.000000 0.000000 0.000000 
0.638527 0.558235 -1.893650 0.000000 0.000000 0.000000 
0.689075 0.608130 -1.646640 0.000000 0.000000 0.000000 
0.774893 0.605190 -1.915260 0.000000 0.000000 0.000000 
0.591994 0.502388 -1.970030 0.000000 0.000000 0.000000 
0.410200 0.672618 -1.585920 0.000000 0.000000 0.000000 
0.399216 0.721382 -1.776630 0.000000 0.000000 0.000000 
0.264805 0.376081 -1.552560 0.000000 0.000000 0.000000 
0.288243 0.402428 -1.592390 0.000000 0.000000 0.000000 
0.411061 0.558357 -1.564670 0.000000 0.000000 0.000000 
0.403688 0.626605 -1.555830 0.000000 0.000000 0.000000 
0.255080 0.395563 -1.533150 0.000000 0.000000 0.000000 
0.361263 0.605204 -1.492920 0.000000 0.000000 0.000000 
0.423831 0.267888 -1.464720 0.000000 0.000000 0.000000 
0.304765 0.553309 -1.521790 0.000000 0.000000 0.000000 
0.374712 0.595376 -1.599960 0.000000 0.000000 0.000000 
0.301103 0.554577 -1.522270 0.000000 0.000000 0.000000 
0.403314 0.604530 -1.541850 0.000000 0.000000 0.000000 
0.264502 0.373904 -1.560380 0.000000 0.000000 0.000000 
0.287254 0.378234 -1.500460 0.000000 0.000000 0.000000 
0.287971 0.391684 -1.521890 0.000000 0.000000 0.000000 
0.383589 0.603155 -1.546160 0.000000 0.000000 0.000000 
0.365564 0.599030 -1.561790 0.000000 0.000000 0.000000 
0.277673 0.400813 -1.587140 0.000000 0.000000 0.000000 
0.428960 0.673243 -1.534820 0.000000 0.000000 0.000000 
0.258365 0.375217 -1.562740 0.000000 0.000000 0.000000 
0.417087 0.669466 -1.577410 0.000000 0.000000 0.000000 
0.412249 0.633037 -1.566610 0.000000 0.000000 0.000000 
0.357108 0.571865 -1.473940 0.000000 0.000000 0.000000 
0.342545 0.560078 -1.469560 0.000000 0.000000 0.000000 
0.409766 0.561984 -1.590610 0.000000 0.000000 0.000000 
0.424167 0.672849 -1.562180 0.000000 0.000000 0.000000 
0.272637 0.396282 -1.564660 0.000000 0.000000 0.000000 
1.027550 0.497819 -1.371510 0.000000 0.000000 0.000000 
1.029370 0.377138 -1.420810 0.000000 0.000000 0.000000 
1.029720 0.400187 -1.434870 0.000000 0.000000 0.000000 
0.182281 0.396358 -0.651905 0.000000 0.000000 0.000000 
0.357149 0.294086 -0.457544 0.000000 0.000000 0.000000 
0.181720 0.199278 -0.635418 0.000000 0.000000 0.000000 
0.249902 0.411783 -0.429958 0.000000 0.000000 0.000000 
0.171623 0.275057 -0.607242 0.000000 0.000000 0.000000 
0.193379 0.262952 -0.630388 0.000000 0.000000 0.000000 
0.237658 0.269510 -1.168190 0.000000 0.000000 0.000000 
0.222297 0.260452 -1.148610 0.000000 0.000000 0.000000 
0.244722 0.265655 -1.147560 0.000000 0.000000 0.000000 
0.240658 0.269321 -1.166470 0.000000 0.000000 0.000000 
0.360448 0.387249 -1.235470 0.000000 0.000000 0.000000 
0.247880 0.457553 -1.161970 0.000000 0.000000 0.000000 
0.239453 0.331012 -1.245400 0.000000 0.000000 0.000000 
0.338778 0.259819 -1.128100 0.000000 0.000000 0.000000 
0.215966 0.376407 -1.037490 0.000000 0.000000 0.000000 
0.244335 0.419098 -1.207150 0.000000 0.000000 0.000000 
0.601075 0.304965 -2.010960 0.000000 0.000000 0.000000 
0.277886 0.285767 -0.447277 0.000000 0.000000 0.000000 
0.164797 0.407932 -0.444178 0.000000 0.000000 0.000000 
0.168336 0.431233 -0.593161 0.000000 0.000000 0.000000 
0.187635 0.455934 -0.664236 0.000000 0.000000 0.000000 
0.311283 0.382126 -0.495234 0.000000 0.000000 0.000000 
0.262321 0.424828 -0.499882 0.000000 0.000000 0.000000 
0.348319 0.245808 -0.507979 0.000000 0.000000 0.000000 
0.171467 0.361533 -0.618453 0.000000 0.000000 0.000000 
0.171339 0.382164 -0.718831 0.000000 0.000000 0.000000 
0.375289 0.411856 -0.486547 0.000000 0.000000 0.000000 
0.531479 0.349468 -0.582378 0.000000 0.000000 0.000000 
1.005780 0.139544 -0.625135 0.000000 0.000000 0.000000 
0.173286 0.307731 -0.474177 0.000000 0.000000 0.000000 
0.303582 0.407533 -0.481967 0.000000 0.000000 0.000000 
0.180449 0.232743 -0.699560 0.000000 0.000000 0.000000 
0.323043 0.526482 -1.060190 0.000000 0.000000 0.000000 
0.337750 0.457936 -0.952954 0.000000 0.000000 0.000000 
0.714762 0.492824 -1.247510 0.000000 0.000000 0.000000 
0.349817 0.450597 -0.910823 0.000000 0.000000 0.000000 
0.469126 0.279966 -0.588949 0.000000 0.000000 0.000000 
0.495889 0.413607 -0.609537 0.000000 0.000000 0.000000 
0.655366 0.565383 -1.095200 0.000000 0.000000 0.000000 
0.584777 0.319660 -0.521612 0.000000 0.000000 0.000000 
0.785870 0.480555 -0.969101 0.000000 0.000000 0.000000 
0.384879 0.664782 -1.498710 0.000000 0.000000 0.000000 
0.360971 0.560821 -1.487970 0.000000 0.000000 0.000000 
0.460664 0.421569 -0.537370 0.000000 0.000000 0.000000 
0.174111 0.431575 -0.565077 0.000000 0.000000 0.000000 
0.315615 0.427158 -0.516080 0.000000 0.000000 0.000000 
0.173292 0.419668 -0.574894 0.000000 0.000000 0.000000 
0.172982 0.378123 -0.686775 0.000000 0.000000 0.000000 
0.178166 0.390597 -0.747412 0.000000 0.000000 0.000000 
0.174622 0.419852 -0.574171 0.000000 0.000000 0.000000 
0.174579 0.417950 -0.574553 0.000000 0.000000 0.000000 
0.300368 0.587491 -1.690400 0.000000 0.000000 0.000000 
0.294252 0.590308 -1.692920 0.000000 0.000000 0.000000 
0.388679 0.589223 -1.594920 0.000000 0.000000 0.000000 
0.365743 0.644966 -1.467740 0.000000 0.000000 0.000000 
0.365538 0.645323 -1.466980 0.000000 0.000000 0.000000 
0.334971 0.340435 -1.490570 0.000000 0.000000 0.000000 
0.251274 0.443753 -1.224700 0.000000 0.000000 0.000000 
0.249558 0.414880 -1.231880 0.000000 0.000000 0.000000 
0.369731 0.647718 -1.449720 0.000000 0.000000 0.000000 
0.356342 0.597315 -1.470350 0.000000 0.000000 0.000000 
0.249613 0.415328 -1.231590 0.000000 0.000000 0.000000 
0.251396 0.415327 -1.230710 0.000000 0.000000 0.000000 
0.396744 0.535851 -1.568990 0.000000 0.000000 0.000000 
0.360935 0.590542 -1.554870 0.000000 0.000000 0.000000 
0.237704 0.371520 -1.180340 0.000000 0.000000 0.000000 
0.274877 0.398312 -1.565800 0.000000 0.000000 0.000000 
0.369179 0.589892 -1.623010 0.000000 0.000000 0.000000 
0.343519 0.671486 -1.532740 0.000000 0.000000 0.000000 
0.419171 0.684565 -1.555330 0.000000 0.000000 0.000000 
0.275415 0.542948 -1.950020 0.000000 0.000000 0.000000 
0.274593 0.397860 -1.565760 0.000000 0.000000 0.000000 
0.358044 0.591705 -1.555810 0.000000 0.000000 0.000000 
0.409902 0.611539 -1.544900 0.000000 0.000000 0.000000 
0.271043 0.566347 -1.937300 0.000000 0.000000 0.000000 
0.471119 0.704214 -1.670850 0.000000 0.000000 0.000000 
0.266572 0.450715 -1.792680 0.000000 0.000000 0.000000 
0.279342 0.382393 -1.600750 0.000000 0.000000 0.000000 
0.285776 0.427008 -1.648080 0.000000 0.000000 0.000000 
0.272870 0.397837 -1.566640 0.000000 0.000000 0.000000 
0.407100 0.565240 -1.587550 0.000000 0.000000 0.000000 
0.400047 0.640707 -1.572510 0.000000 0.000000 0.000000 
0.274822 0.637281 -1.924700 0.000000 0.000000 0.000000 
0.373524 0.589453 -1.628880 0.000000 0.000000 0.000000 
0.360989 0.578109 -1.531600 0.000000 0.000000 0.000000 
0.367919 0.593710 -1.655630 0.000000 0.000000 0.000000 
0.408653 0.715647 -1.723300 0.000000 0.000000 0.000000 
0.294381 0.561738 -1.525420 0.000000 0.000000 0.000000 
0.424561 0.678332 -1.565740 0.000000 0.000000 0.000000 
0.422775 0.265367 -1.414290 0.000000 0.000000 0.000000 
0.359462 0.546287 -1.441940 0.000000 0.000000 0.000000 
0.287874 0.586221 -1.710060 0.000000 0.000000 0.000000 
0.378552 0.601846 -1.654510 0.000000 0.000000 0.000000 
0.373056 0.594017 -1.563740 0.000000 0.000000 0.000000 
0.387749 0.666653 -1.547270 0.000000 0.000000 0.000000 
0.410906 0.649811 -1.555100 0.000000 0.000000 0.000000 
0.286146 0.618722 -1.766070 0.000000 0.000000 0.000000 
0.380601 0.542512 -1.597590 0.000000 0.000000 0.000000 
0.380977 0.588557 -1.560040 0.000000 0.000000 0.000000 
0.380206 0.604038 -1.641500 0.000000 0.000000 0.000000 
0.269977 0.392047 -1.551720 0.000000 0.000000 0.000000 
0.362398 0.556530 -1.477630 0.000000 0.000000 0.000000 
0.398562 0.583822 -1.587530 0.000000 0.000000 0.000000 
0.411378 0.610032 -1.544540 0.000000 0.000000 0.000000 
0.482254 0.550426 -1.929740 0.000000 0.000000 0.000000 
0.387320 0.667010 -1.554010 0.000000 0.000000 0.000000 
0.361972 0.572109 -1.533630 0.000000 0.000000 0.000000 
0.400896 0.716382 -1.736670 0.000000 0.000000 0.000000 
0.381896 0.715084 -1.763190 0.000000 0.000000 0.000000 
0.415483 0.613620 -1.576380 0.000000 0.000000 0.000000 
0.300223 0.548546 -1.495480 0.000000 0.000000 0.000000 
0.415002 0.695135 -1.637710 0.000000 0.000000 0.000000 
0.368156 0.601165 -1.603630 0.000000 0.000000 0.000000 
0.337110 0.556430 -1.070420 0.000000 0.000000 0.000000 
0.275589 0.439910 -1.005000 0.000000 0.000000 0.000000 
0.328788 0.425998 -1.098220 0.000000 0.000000 0.000000 
0.499974 0.430320 -0.571465 0.000000 0.000000 0.000000 
0.835108 0.287060 -0.449487 0.000000 0.000000 0.000000 
0.473571 0.556802 -1.035740 0.000000 0.000000 0.000000 
1.028480 0.388220 -1.387500 0.000000 0.000000 0.000000 
1.031100 0.389001 -1.463870 0.000000 0.000000 0.000000 
1.032880 0.364835 -1.468450 0.000000 0.000000 0.000000 
1.028410 0.408680 -1.414960 0.000000 0.000000 0.000000 
0.928941 0.455339 -1.036480 0.000000 0.000000 0.000000 
0.408452 0.254852 -1.462640 0.000000 0.000000 0.000000 
0.359042 0.580654 -1.518740 0.000000 0.000000 0.000000 
0.279495 0.408172 -1.608580 0.000000 0.000000 0.000000 
0.382261 0.666850 -1.513660 0.000000 0.000000 0.000000 
0.292499 0.412876 -1.621610 0.000000 0.000000 0.000000 
0.368222 0.648848 -1.450490 0.000000 0.000000 0.000000 
0.272579 0.387133 -1.600780 0.000000 0.000000 0.000000 
0.270956 0.427652 -1.802110 0.000000 0.000000 0.000000 
0.269123 0.401089 -1.614020 0.000000 0.000000 0.000000 
0.393308 0.536892 -1.589800 0.000000 0.000000 0.000000 
0.286049 0.617644 -1.764540 0.000000 0.000000 0.000000 
0.279975 0.368770 -1.553390 0.000000 0.000000 0.000000 
0.288073 0.619641 -1.780570 0.000000 0.000000 0.000000 
0.427099 0.255545 -1.449800 0.000000 0.000000 0.000000 
0.431847 0.254627 -1.478750 0.000000 0.000000 0.000000 
0.431386 0.258376 -1.455760 0.000000 0.000000 0.000000 
0.591318 0.552549 -1.954800 0.000000 0.000000 0.000000 
0.574540 0.619655 -1.879870 0.000000 0.000000 0.000000 
0.573992 0.557738 -1.900320 0.000000 0.000000 0.000000 
0.827597 0.465913 -1.954680 0.000000 0.000000 0.000000 
0.830429 0.468478 -1.973600 0.000000 0.000000 0.000000 
0.446654 0.366810 -1.878100 0.000000 0.000000 0.000000 
0.405662 0.727788 -1.782380 0.000000 0.000000 0.000000 
0.377049 0.654335 -1.557230 0.000000 0.000000 0.000000 
0.408460 0.719353 -1.736260 0.000000 0.000000 0.000000 
0.393022 0.565009 -1.561680 0.000000 0.000000 0.000000 
0.381225 0.656764 -1.531890 0.000000 0.000000 0.000000 
0.327356 0.549022 -1.482830 0.000000 0.000000 0.000000 
0.366858 0.599546 -1.562300 0.000000 0.000000 0.000000 
0.379775 0.587919 -1.571270 0.000000 0.000000 0.000000 
0.369956 0.583145 -1.588420 0.000000 0.000000 0.000000 
0.405714 0.598417 -1.544250 0.000000 0.000000 0.000000 
0.399936 0.626144 -1.549920 0.000000 0.000000 0.000000 
0.752296 0.295189 -1.997480 0.000000 0.000000 0.000000 
1.075450 0.439887 -1.815250 0.000000 0.000000 0.000000 
0.514687 0.335236 -1.892960 0.000000 0.000000 0.000000 
0.699593 0.499243 -1.970940 0.000000 0.000000 0.000000 
0.447089 0.302275 -1.794050 0.000000 0.000000 0.000000 
0.452254 0.387118 -1.887650 0.000000 0.000000 0.000000 
0.611752 0.300081 -2.017270 0.000000 0.000000 0.000000 
0.440926 0.434584 -1.854320 0.000000 0.000000 0.000000 
0.446724 0.302946 -1.794870 0.000000 0.000000 0.000000 
0.452304 0.387732 -1.886420 0.000000 0.000000 0.000000 
0.447184 0.304375 -1.786690 0.000000 0.000000 0.000000 
0.508717 0.620603 -1.886230 0.000000 0.000000 0.000000 
0.479474 0.550441 -1.956630 0.000000 0.000000 0.000000 
0.451643 0.611830 -1.903830 0.000000 0.000000 0.000000 
0.301877 0.291333 -0.469288 0.000000 0.000000 0.000000 
0.168842 0.445430 -0.568226 0.000000 0.000000 0.000000 
0.838496 0.280183 -0.437200 0.000000 0.000000 0.000000 
0.570015 0.588414 -1.185990 0.000000 0.000000 0.000000 
0.314841 0.243803 -1.060350 0.000000 0.000000 0.000000 
0.218134 0.246580 -1.080630 0.000000 0.000000 0.000000 
1.028720 0.413161 -1.449400 0.000000 0.000000 0.000000 
1.034160 0.375654 -1.501490 0.000000 0.000000 0.000000 
1.027900 0.373047 -1.385760 0.000000 0.000000 0.000000 
0.725267 0.516337 -1.333930 0.000000 0.000000 0.000000 
0.940812 0.497303 -1.317620 0.000000 0.000000 0.000000 
0.891340 0.499631 -1.320150 0.000000 0.000000 0.000000 
0.291252 0.256995 -0.478087 0.000000 0.000000 0.000000 
0.352829 0.175637 -0.484584 0.000000 0.000000 0.000000 
0.184649 0.272630 -0.862214 0.000000 0.000000 0.000000 
0.543429 0.415514 -0.644521 0.000000 0.000000 0.000000 
0.322616 0.472845 -0.945565 0.000000 0.000000 0.000000 
0.571848 0.569749 -1.092730 0.000000 0.000000 0.000000 
0.449375 0.564005 -1.076610 0.000000 0.000000 0.000000 
0.510887 0.286081 -0.486507 0.000000 0.000000 0.000000 
0.516440 0.413431 -0.489328 0.000000 0.000000 0.000000 
0.527488 0.312559 -0.576427 0.000000 0.000000 0.000000 
0.332432 0.540351 -1.004100 0.000000 0.000000 0.000000 
0.162747 0.404743 -0.444149 0.000000 0.000000 0.000000 
0.215810 0.185769 -0.550967 0.000000 0.000000 0.000000 
0.150142 0.359008 -0.435216 0.000000 0.000000 0.000000 
0.348284 0.169097 -0.483811 0.000000 0.000000 0.000000 
0.844861 0.435973 -1.002890 0.000000 0.000000 0.000000 
0.835315 0.281573 -0.447396 0.000000 0.000000 0.000000 
0.573032 0.228031 -0.455597 0.000000 0.000000 0.000000 
0.708591 0.589716 -1.197600 0.000000 0.000000 0.000000 
0.312527 0.392020 -1.496960 0.000000 0.000000 0.000000 
0.250282 0.463184 -1.214840 0.000000 0.000000 0.000000 
0.251143 0.462325 -1.215660 0.000000 0.000000 0.000000 
0.725939 0.535610 -1.398970 0.000000 0.000000 0.000000 
0.724871 0.534463 -1.398650 0.000000 0.000000 0.000000 
1.043180 0.344551 -1.094000 0.000000 0.000000 0.000000 
1.031200 0.320290 -1.368300 0.000000 0.000000 0.000000 
1.034370 0.320929 -1.368670 0.000000 0.000000 0.000000 
0.381353 0.453968 -1.211000 0.000000 0.000000 0.000000 
0.361177 0.331107 -1.249250 0.000000 0.000000 0.000000 
0.392081 0.460386 -1.206070 0.000000 0.000000 0.000000 
0.247898 0.390386 -1.231100 0.000000 0.000000 0.000000 
0.236372 0.402047 -1.147850 0.000000 0.000000 0.000000 
0.233695 0.365381 -1.153650 0.000000 0.000000 0.000000 
0.240898 0.467746 -0.691902 0.000000 0.000000 0.000000 
1.033120 0.350951 -0.937571 0.000000 0.000000 0.000000 
0.935892 0.407103 -1.040480 0.000000 0.000000 0.000000 
0.383064 0.405655 -0.468975 0.000000 0.000000 0.000000 
0.398362 0.229326 -0.473530 0.000000 0.000000 0.000000 
0.272675 0.274219 -0.474840 0.000000 0.000000 0.000000 
0.327123 0.418163 -0.503283 0.000000 0.000000 0.000000 
0.383651 0.341404 -0.501850 0.000000 0.000000 0.000000 
0.289258 0.272383 -0.479222 0.000000 0.000000 0.000000 
0.382094 0.327583 -0.531316 0.000000 0.000000 0.000000 
0.194836 0.259746 -0.643408 0.000000 0.000000 0.000000 
0.182747 0.231749 -0.694586 0.000000 0.000000 0.000000 
0.185708 0.212134 -0.681389 0.000000 0.000000 0.000000 
0.179458 0.397475 -0.649334 0.000000 0.000000 0.000000 
0.179194 0.388459 -0.769504 0.000000 0.000000 0.000000 
0.244274 0.382180 -0.442251 0.000000 0.000000 0.000000 
0.188633 0.246977 -0.752584 0.000000 0.000000 0.000000 
0.565677 0.324270 -0.536745 0.000000 0.000000 0.000000 
0.471653 0.380502 -0.575001 0.000000 0.000000 0.000000 
0.687316 0.294919 -0.583802 0.000000 0.000000 0.000000 
0.395261 0.285764 -1.259760 0.000000 0.000000 0.000000 
0.248478 0.372191 -1.244070 0.000000 0.000000 0.000000 
0.355933 0.440376 -1.224720 0.000000 0.000000 0.000000 
0.831938 0.456111 -0.999645 0.000000 0.000000 0.000000 
0.398826 0.229941 -0.470165 0.000000 0.000000 0.000000 
0.399845 0.230598 -0.470922 0.000000 0.000000 0.000000 
0.385404 0.410736 -0.494939 0.000000 0.000000 0.000000 
0.586302 0.414050 -0.515456 0.000000 0.000000 0.000000 
0.400609 0.231767 -0.469908 0.000000 0.000000 0.000000 
0.587615 0.413875 -0.507319 0.000000 0.000000 0.000000 
0.387738 0.413114 -0.489261 0.000000 0.000000 0.000000 
0.846096 0.436670 -1.006580 0.000000 0.000000 0.000000 
0.592500 0.303542 -0.488333 0.000000 0.000000 0.000000 
0.554874 0.276007 -0.454615 0.000000 0.000000 0.000000 
0.333779 0.523305 -0.964741 0.000000 0.000000 0.000000 
0.343684 0.396136 -0.977798 0.000000 0.000000 0.000000 
0.185863 0.245793 -0.752993 0.000000 0.000000 0.000000 
0.182863 0.247958 -0.622767 0.000000 0.000000 0.000000 
0.296786 0.508266 -0.968902 0.000000 0.000000 0.000000 
0.365175 0.076240 -0.503050 0.000000 0.000000 0.000000 
0.161772 0.406102 -0.442358 0.000000 0.000000 0.000000 
0.569122 0.338682 -0.513774 0.000000 0.000000 0.000000 
0.329487 0.362487 -1.179610 0.000000 0.000000 0.000000 
0.310590 0.428669 -0.990950 0.000000 0.000000 0.000000 
0.315252 0.406317 -0.935895 0.000000 0.000000 0.000000 
0.275892 0.482605 -0.855295 0.000000 0.000000 0.000000 
0.234590 0.402601 -1.147940 0.000000 0.000000 0.000000 
0.235965 0.407037 -1.176140 0.000000 0.000000 0.000000 
1.027840 0.367863 -1.385940 0.000000 0.000000 0.000000 
0.921749 0.389539 -1.027080 0.000000 0.000000 0.000000 
1.029740 0.234956 -0.972911 0.000000 0.000000 0.000000 
1.023410 0.223097 -0.981188 0.000000 0.000000 0.000000 
1.018610 0.276990 -1.215180 0.000000 0.000000 0.000000 
1.010460 0.245700 -0.993006 0.000000 0.000000 0.000000 
1.025380 0.226777 -0.978756 0.000000 0.000000 0.000000 
0.242467 0.463276 -1.179010 0.000000 0.000000 0.000000 
0.311726 0.391079 -1.496850 0.000000 0.000000 0.000000 
0.356246 0.423079 -1.228830 0.000000 0.000000 0.000000 
0.356661 0.429093 -1.226650 0.000000 0.000000 0.000000 
0.234754 0.401601 -1.147610 0.000000 0.000000 0.000000 
0.251373 0.461786 -1.216010 0.000000 0.000000 0.000000 
0.254845 0.449117 -1.219730 0.000000 0.000000 0.000000 
0.337824 0.306660 -1.254610 0.000000 0.000000 0.000000 
0.620607 0.589032 -1.188590 0.000000 0.000000 0.000000 
0.476892 0.566889 -1.085870 0.000000 0.000000 0.000000 
0.525607 0.589084 -1.199100 0.000000 0.000000 0.000000 
0.399493 0.346093 -0.551796 0.000000 0.000000 0.000000 
0.797607 0.379400 -0.937079 0.000000 0.000000 0.000000 
0.515591 0.427804 -0.469691 0.000000 0.000000 0.000000 
0.541674 0.434424 -0.569242 0.000000 0.000000 0.000000 
0.705384 0.588113 -1.193500 0.000000 0.000000 0.000000 
1.006330 0.162254 -0.716070 0.000000 0.000000 0.000000 
1.009890 0.099788 -0.476027 0.000000 0.000000 0.000000 
0.252893 0.461470 -1.214720 0.000000 0.000000 0.000000 
0.330896 0.330401 -1.247530 0.000000 0.000000 0.000000 
0.377564 0.467330 -1.210990 0.000000 0.000000 0.000000 
0.228423 0.408513 -1.177080 0.000000 0.000000 0.000000 
0.357912 0.373559 -1.241800 0.000000 0.000000 0.000000 
0.226848 0.260954 -1.146220 0.000000 0.000000 0.000000 
0.373988 0.474783 -1.215220 0.000000 0.000000 0.000000 
0.333121 0.317181 -1.255770 0.000000 0.000000 0.000000 
0.359346 0.373710 -1.240520 0.000000 0.000000 0.000000 
0.356940 0.338253 -1.248220 0.000000 0.000000 0.000000 
0.238256 0.263764 -1.144820 0.000000 0.000000 0.000000 
0.351324 0.502392 -1.207280 0.000000 0.000000 0.000000 
0.245386 0.390108 -1.234190 0.000000 0.000000 0.000000 
0.136181 0.249586 -1.188340 0.000000 0.000000 0.000000 
0.296201 0.376543 -1.237140 0.000000 0.000000 0.000000 
0.282639 0.394047 -1.532410 0.000000 0.000000 0.000000 
0.396531 0.560192 -1.560380 0.000000 0.000000 0.000000 
0.373930 0.573518 -1.524130 0.000000 0.000000 0.000000 
0.799758 0.450820 -1.009140 0.000000 0.000000 0.000000 
1.003240 0.204684 -0.482444 0.000000 0.000000 0.000000 
0.777281 0.442098 -1.007410 0.000000 0.000000 0.000000 
0.705088 0.280350 -0.578626 0.000000 0.000000 0.000000 
0.594392 0.302643 -0.492405 0.000000 0.000000 0.000000 
0.707514 0.589260 -1.200090 0.000000 0.000000 0.000000 
0.611617 0.551185 -1.055120 0.000000 0.000000 0.000000 
0.252072 0.129225 -0.502998 0.000000 0.000000 0.000000 
0.272016 0.274028 -0.474738 0.000000 0.000000 0.000000 
0.335657 0.540237 -1.011040 0.000000 0.000000 0.000000 
0.611339 0.551184 -1.055200 0.000000 0.000000 0.000000 
0.253355 0.129395 -0.504521 0.000000 0.000000 0.000000 
0.354491 0.195350 -0.480777 0.000000 0.000000 0.000000 
0.777029 0.442169 -1.007520 0.000000 0.000000 0.000000 
0.586010 0.556241 -1.035250 0.000000 0.000000 0.000000 
0.355693 0.172682 -0.490189 0.000000 0.000000 0.000000 
0.592148 0.230971 -0.473395 0.000000 0.000000 0.000000 
0.450796 0.431491 -0.550996 0.000000 0.000000 0.000000 
0.360717 0.415525 -0.498199 0.000000 0.000000 0.000000 
0.347100 0.291032 -0.457661 0.000000 0.000000 0.000000 
0.686532 0.314684 -0.524052 0.000000 0.000000 0.000000 
0.191791 0.279177 -0.635699 0.000000 0.000000 0.000000 
0.305658 0.341482 -0.491284 0.000000 0.000000 0.000000 
0.189419 0.446675 -0.592009 0.000000 0.000000 0.000000 
0.327396 0.546767 -1.028650 0.000000 0.000000 0.000000 
0.362213 0.517615 -0.923147 0.000000 0.000000 0.000000 
0.194495 0.334199 -0.951029 0.000000 0.000000 0.000000 
0.199515 0.290868 -0.864078 0.000000 0.000000 0.000000 
0.308675 0.428875 -0.984954 0.000000 0.000000 0.000000 
0.316467 0.394051 -0.967279 0.000000 0.000000 0.000000 
0.455652 0.281954 -0.573683 0.000000 0.000000 0.000000 
0.193042 0.334069 -0.950434 0.000000 0.000000 0.000000 
0.328440 0.545171 -1.034350 0.000000 0.000000 0.000000 
0.326966 0.547260 -1.027390 0.000000 0.000000 0.000000 
0.188686 0.253006 -0.782335 0.000000 0.000000 0.000000 
0.529677 0.601436 -1.254170 0.000000 0.000000 0.000000 
0.296803 0.304053 -0.462842 0.000000 0.000000 0.000000 
0.280336 0.415430 -1.799860 0.000000 0.000000 0.000000 
0.314654 0.402015 -1.570140 0.000000 0.000000 0.000000 
0.406373 0.551905 -1.598460 0.000000 0.000000 0.000000 
0.338012 0.450544 -0.880488 0.000000 0.000000 0.000000 
0.372275 0.495681 -1.136020 0.000000 0.000000 0.000000 
0.333129 0.550466 -1.081800 0.000000 0.000000 0.000000 
0.372875 0.512853 -0.950679 0.000000 0.000000 0.000000 
0.286739 0.537170 -1.080980 0.000000 0.000000 0.000000 
0.318649 0.530419 -1.061370 0.000000 0.000000 0.000000 
0.326316 0.517807 -1.123630 0.000000 0.000000 0.000000 
0.459072 0.514959 -0.806728 0.000000 0.000000 0.000000 
0.376809 0.510815 -0.955808 0.000000 0.000000 0.000000 
0.304014 0.454819 -1.033960 0.000000 0.000000 0.000000 
0.517340 0.282871 -0.538076 0.000000 0.000000 0.000000 
0.471849 0.276140 -0.590569 0.000000 0.000000 0.000000 
0.329028 0.406124 -0.970952 0.000000 0.000000 0.000000 
0.224483 0.392164 -0.902257 0.000000 0.000000 0.000000 
0.197160 0.386735 -0.930470 0.000000 0.000000 0.000000 
0.517072 0.546095 -1.006930 0.000000 0.000000 0.000000 
0.375072 0.562620 -1.110140 0.000000 0.000000 0.000000 
0.308795 0.427599 -0.985522 0.000000 0.000000 0.000000 
0.379212 0.333811 -0.526143 0.000000 0.000000 0.000000 
0.592803 0.556185 -1.030700 0.000000 0.000000 0.000000 
0.191618 0.377903 -0.831265 0.000000 0.000000 0.000000 
0.830712 0.380373 -0.935203 0.000000 0.000000 0.000000 
0.678644 0.494611 -0.810744 0.000000 0.000000 0.000000 
0.875944 0.375265 -0.922457 0.000000 0.000000 0.000000 
0.772332 0.451788 -0.992516 0.000000 0.000000 0.000000 
0.766736 0.447587 -1.020150 0.000000 0.000000 0.000000 
0.592133 0.411681 -0.498962 0.000000 0.000000 0.000000 
1.014320 0.169259 -0.448223 0.000000 0.000000 0.000000 
0.994748 0.101750 -0.500842 0.000000 0.000000 0.000000 
1.002100 0.098840 -0.485761 0.000000 0.000000 0.000000 
1.002090 0.091695 -0.481187 0.000000 0.000000 0.000000 
0.592511 0.227297 -0.455342 0.000000 0.000000 0.000000 
0.585851 0.413895 -0.514409 0.000000 0.000000 0.000000 
1.017010 0.212162 -0.487973 0.000000 0.000000 0.000000 
0.667291 0.296075 -0.455941 0.000000 0.000000 0.000000 
0.249859 0.325310 -0.456690 0.000000 0.000000 0.000000 
0.512276 0.418055 -0.529641 0.000000 0.000000 0.000000 
0.369288 0.393078 -0.492403 0.000000 0.000000 0.000000 
0.297673 0.174249 -0.495488 0.000000 0.000000 0.000000 
0.191288 0.247278 -0.754069 0.000000 0.000000 0.000000 
0.344956 0.205394 -0.472540 0.000000 0.000000 0.000000 
0.193686 0.411165 -0.615369 0.000000 0.000000 0.000000 
0.179941 0.383578 -0.606147 0.000000 0.000000 0.000000 
0.187835 0.378116 -0.469715 0.000000 0.000000 0.000000 
0.190383 0.209406 -0.645151 0.000000 0.000000 0.000000 
0.384625 0.230409 -0.466664 0.000000 0.000000 0.000000 
0.348126 0.206398 -0.479497 0.000000 0.000000 0.000000 
0.301528 0.263521 -0.475032 0.000000 0.000000 0.000000 
0.291007 0.288821 -0.473487 0.000000 0.000000 0.000000 
0.178561 0.304691 -0.608090 0.000000 0.000000 0.000000 
0.189316 0.428746 -0.751595 0.000000 0.000000 0.000000 
0.186230 0.425648 -0.575527 0.000000 0.000000 0.000000 
0.192208 0.398536 -0.746662 0.000000 0.000000 0.000000 
0.176209 0.334780 -0.593129 0.000000 0.000000 0.000000 
0.172983 0.334402 -0.589443 0.000000 0.000000 0.000000 
0.307073 0.366876 -0.477963 0.000000 0.000000 0.000000 
0.300360 0.272512 -0.467924 0.000000 0.000000 0.000000 
0.294134 0.411093 -0.463384 0.000000 0.000000 0.000000 
0.330907 0.420245 -0.506641 0.000000 0.000000 0.000000 
0.181943 0.308056 -0.608394 0.000000 0.000000 0.000000 
0.183933 0.184284 -0.500128 0.000000 0.000000 0.000000 
0.197170 0.380047 -0.836608 0.000000 0.000000 0.000000 
0.221033 0.444511 -0.573321 0.000000 0.000000 0.000000 
0.204211 0.442484 -0.649502 0.000000 0.000000 0.000000 
0.201954 0.401040 -0.769286 0.000000 0.000000 0.000000 
0.182648 0.232607 -0.702510 0.000000 0.000000 0.000000 
0.380400 0.428347 -0.526775 0.000000 0.000000 0.000000 
0.870866 0.422569 -1.023510 0.000000 0.000000 0.000000 
1.011260 0.337026 -0.912587 0.000000 0.000000 0.000000 
0.998046 0.292101 -1.229740 0.000000 0.000000 0.000000 
1.039810 0.345031 -1.097190 0.000000 0.000000 0.000000 
0.802063 0.533000 -1.400810 0.000000 0.000000 0.000000 
1.009250 0.430582 -0.997878 0.000000 0.000000 0.000000 
1.029400 0.392168 -1.449240 0.000000 0.000000 0.000000 
1.031330 0.416410 -1.481830 0.000000 0.000000 0.000000 
0.728404 0.536058 -1.376600 0.000000 0.000000 0.000000 
1.028690 0.388742 -1.397730 0.000000 0.000000 0.000000 
1.026740 0.401663 -1.351100 0.000000 0.000000 0.000000 
0.413190 0.629380 -1.569060 0.000000 0.000000 0.000000 
0.315814 0.245107 -1.066710 0.000000 0.000000 0.000000 
0.217183 0.257185 -1.135670 0.000000 0.000000 0.000000 
0.310714 0.242766 -1.063590 0.000000 0.000000 0.000000 
0.135518 0.228681 -1.088670 0.000000 0.000000 0.000000 
0.381222 0.454211 -1.218890 0.000000 0.000000 0.000000 
0.306720 0.382243 -1.485310 0.000000 0.000000 0.000000 
0.240752 0.390411 -1.193300 0.000000 0.000000 0.000000 
0.326800 0.329604 -1.250330 0.000000 0.000000 0.000000 
0.378508 0.455991 -1.216140 0.000000 0.000000 0.000000 
0.387973 0.443580 -1.167770 0.000000 0.000000 0.000000 
0.357463 0.394014 -1.237590 0.000000 0.000000 0.000000 
0.406811 0.639615 -1.573960 0.000000 0.000000 0.000000 
0.425392 0.265630 -1.412460 0.000000 0.000000 0.000000 
0.273203 0.274341 -0.477854 0.000000 0.000000 0.000000 
0.295218 0.267444 -0.480064 0.000000 0.000000 0.000000 
0.191952 0.254781 -0.641361 0.000000 0.000000 0.000000 
0.490661 0.443754 -0.589483 0.000000 0.000000 0.000000 
0.325544 0.546178 -1.027510 0.000000 0.000000 0.000000 
0.333361 0.523246 -0.968406 0.000000 0.000000 0.000000 
0.182990 0.183384 -0.500196 0.000000 0.000000 0.000000 
0.349627 0.653190 -1.495340 0.000000 0.000000 0.000000 
0.371705 0.648496 -1.456550 0.000000 0.000000 0.000000 
0.287157 0.389041 -1.509290 0.000000 0.000000 0.000000 
0.398595 0.325231 -1.328460 0.000000 0.000000 0.000000 
0.338373 0.339564 -1.484570 0.000000 0.000000 0.000000 
0.384516 0.669009 -1.548080 0.000000 0.000000 0.000000 
1.014690 0.191455 -0.866145 0.000000 0.000000 0.000000 
1.041460 0.259152 -1.078190 0.000000 0.000000 0.000000 
1.012590 0.215069 -0.969166 0.000000 0.000000 0.000000 
1.028170 0.367112 -1.386680 0.000000 0.000000 0.000000 
0.191297 0.286816 -0.799006 0.000000 0.000000 0.000000 
0.333705 0.244956 -0.478428 0.000000 0.000000 0.000000 
0.363292 0.318423 -0.509525 0.000000 0.000000 0.000000 
0.289564 0.378892 -1.498330 0.000000 0.000000 0.000000 
0.281251 0.421253 -1.652680 0.000000 0.000000 0.000000 
0.226289 0.366621 -1.156850 0.000000 0.000000 0.000000 
0.241983 0.428104 -1.204230 0.000000 0.000000 0.000000 
0.166041 0.402174 -0.445019 0.000000 0.000000 0.000000 
0.197928 0.457170 -0.682735 0.000000 0.000000 0.000000 
0.324586 0.250121 -0.473627 0.000000 0.000000 0.000000 
0.384603 0.407510 -0.472256 0.000000 0.000000 0.000000 
0.409545 0.265095 -1.183060 0.000000 0.000000 0.000000 
0.296303 0.622034 -1.804450 0.000000 0.000000 0.000000 
0.415343 0.628598 -1.567560 0.000000 0.000000 0.000000 
0.286215 0.396635 -1.528740 0.000000 0.000000 0.000000 
0.387636 0.657694 -1.563160 0.000000 0.000000 0.000000 
0.411095 0.557052 -1.567130 0.000000 0.000000 0.000000 
0.196178 0.303964 -0.937420 0.000000 0.000000 0.000000 
0.481377 0.586787 -1.202950 0.000000 0.000000 0.000000 
0.449484 0.509550 -0.863352 0.000000 0.000000 0.000000 
0.351412 0.498145 -1.110590 0.000000 0.000000 0.000000 
0.306505 0.467395 -1.037940 0.000000 0.000000 0.000000 
0.246139 0.472299 -1.159060 0.000000 0.000000 0.000000 
0.251219 0.460106 -1.167530 0.000000 0.000000 0.000000 
0.238782 0.450531 -1.136180 0.000000 0.000000 0.000000 
0.235369 0.330792 -1.247420 0.000000 0.000000 0.000000 
0.370637 0.470762 -1.218970 0.000000 0.000000 0.000000 
0.236766 0.450833 -1.137890 0.000000 0.000000 0.000000 
0.228368 0.348491 -1.106880 0.000000 0.000000 0.000000 
0.371854 0.471996 -1.144110 0.000000 0.000000 0.000000 
0.375545 0.455969 -1.220740 0.000000 0.000000 0.000000 
0.381718 0.451121 -1.216650 0.000000 0.000000 0.000000 
0.362719 0.330376 -1.248330 0.000000 0.000000 0.000000 
0.242607 0.409187 -1.201090 0.000000 0.000000 0.000000 
0.360210 0.369504 -1.241070 0.000000 0.000000 0.000000 
0.244114 0.418764 -1.206790 0.000000 0.000000 0.000000 
0.294139 0.376171 -1.239830 0.000000 0.000000 0.000000 
0.354442 0.310675 -0.478583 0.000000 0.000000 0.000000 
0.349313 0.172537 -0.473727 0.000000 0.000000 0.000000 
0.191962 0.121335 -0.507992 0.000000 0.000000 0.000000 
0.366123 0.128456 -0.494127 0.000000 0.000000 0.000000 
0.332482 0.321248 -1.251910 0.000000 0.000000 0.000000 
0.251449 0.470900 -1.157510 0.000000 0.000000 0.000000 
0.233561 0.452700 -1.137880 0.000000 0.000000 0.000000 
0.235992 0.469217 -1.144810 0.000000 0.000000 0.000000 
0.246128 0.467142 -1.146610 0.000000 0.000000 0.000000 
0.219404 0.346731 -1.072220 0.000000 0.000000 0.000000 
0.246241 0.461109 -1.169520 0.000000 0.000000 0.000000 
0.572114 0.369188 -0.531689 0.000000 0.000000 0.000000 
0.835916 0.283292 -0.445865 0.000000 0.000000 0.000000 
