-0.415857 0.216157 0.219989 0.000000 0.000000 0.000000 
-0.261714 0.249162 0.059826 0.000000 0.000000 0.000000 
-0.317410 0.202349 0.039077 0.000000 0.000000 0.000000 
-0.298844 -0.070236 -0.094471 0.000000 0.000000 0.000000 
-0.650418 0.465196 -2.007110 0.000000 0.000000 0.000000 
-0.677423 0.653347 -1.980020 0.000000 0.000000 0.000000 
-0.489473 0.527166 -1.992770 0.000000 0.000000 0.000000 
-0.569378 0.543424 -2.013800 0.000000 0.000000 0.000000 
-0.898413 0.727582 -1.791050 0.000000 0.000000 0.000000 
-0.409647 0.632355 -1.998230 0.000000 0.000000 0.000000 
-0.897820 0.506787 -2.088420 0.000000 0.000000 0.000000 
-0.579931 0.649026 -1.966840 0.000000 0.000000 0.000000 
-0.778552 0.604741 -1.744290 0.000000 0.000000 0.000000 
-0.342541 0.143630 -0.240210 0.000000 0.000000 0.000000 
-0.268230 0.238133 -0.453640 0.000000 0.000000 0.000000 
-0.265664 0.210010 -0.472094 0.000000 0.000000 0.000000 
-0.266586 0.234866 -0.466481 0.000000 0.000000 0.000000 
-0.344216 0.158604 0.188728 0.000000 0.000000 0.000000 
-0.346826 0.460153 -0.903849 0.000000 0.000000 0.000000 
-0.354565 0.447781 -0.900891 0.000000 0.000000 0.000000 
-0.348318 0.460130 -1.081790 0.000000 0.000000 0.000000 
-0.351701 0.466479 -1.065200 0.000000 0.000000 0.000000 
-0.356889 0.448532 -1.017900 0.000000 0.000000 0.000000 
-0.351041 0.447848 -1.060320 0.000000 0.000000 0.000000 
-0.594988 0.143039 0.138564 0.000000 0.000000 0.000000 
-0.254521 -0.033586 0.009820 0.000000 0.000000 0.000000 
-0.332671 0.107061 0.226188 0.000000 0.000000 0.000000 
-0.411192 0.060989 0.244310 0.000000 0.000000 0.000000 
-0.335205 0.156337 0.120350 0.000000 0.000000 0.000000 
-0.360711 -0.136065 0.112253 0.000000 0.000000 0.000000 
-0.508682 0.029652 0.236032 0.000000 0.000000 0.000000 
-0.508577 0.017487 0.232737 0.000000 0.000000 0.000000 
-0.288413 0.130083 0.125929 0.000000 0.000000 0.000000 
-0.282349 0.060254 0.167477 0.000000 0.000000 0.000000 
-0.288162 0.128820 0.126717 0.000000 0.000000 0.000000 
-0.562428 0.042352 0.238915 0.000000 0.000000 0.000000 
-0.342889 0.209536 0.141194 0.000000 0.000000 0.000000 
-0.540984 0.153129 0.157334 0.000000 0.000000 0.000000 
-0.336836 0.155531 0.114400 0.000000 0.000000 0.000000 
-0.338377 0.101525 0.252494 0.000000 0.000000 0.000000 
-0.342590 0.130932 0.189701 0.000000 0.000000 0.000000 
-0.392322 0.184318 0.224587 0.000000 0.000000 0.000000 
-0.350281 0.256697 0.144009 0.000000 0.000000 0.000000 
-0.277523 0.018189 0.060121 0.000000 0.000000 0.000000 
-0.268148 0.183754 -0.467550 0.000000 0.000000 0.000000 
-0.332139 0.252598 -0.212225 0.000000 0.000000 0.000000 
-0.269623 0.049713 -0.501716 0.000000 0.000000 0.000000 
-0.265153 0.205571 -0.213823 0.000000 0.000000 0.000000 
-0.275163 0.029196 -0.400859 0.000000 0.000000 0.000000 
-0.261739 0.205713 -0.211265 0.000000 0.000000 0.000000 
-0.277906 0.064843 -0.311355 0.000000 0.000000 0.000000 
-0.322923 0.081158 -0.237899 0.000000 0.000000 0.000000 
-0.256555 0.162955 -0.216045 0.000000 0.000000 0.000000 
-0.505739 0.042765 0.240358 0.000000 0.000000 0.000000 
-0.301152 -0.083365 -0.082640 0.000000 0.000000 0.000000 
-0.385717 -0.151867 0.125735 0.000000 0.000000 0.000000 
-0.482016 -0.132715 0.195197 0.000000 0.000000 0.000000 
-0.276314 0.084030 0.056048 0.000000 0.000000 0.000000 
-0.329931 0.226057 -0.219264 0.000000 0.000000 0.000000 
-0.330526 0.226310 -0.219580 0.000000 0.000000 0.000000 
-0.326337 0.081756 -0.226555 0.000000 0.000000 0.000000 
-0.274223 0.080376 -0.389573 0.000000 0.000000 0.000000 
-0.329700 0.379441 -0.317957 0.000000 0.000000 0.000000 
-0.293599 -0.077552 -0.028059 0.000000 0.000000 0.000000 
-0.299347 -0.049887 -0.089191 0.000000 0.000000 0.000000 
-0.296894 -0.044096 -0.154041 0.000000 0.000000 0.000000 
-0.336378 0.275041 -0.312463 0.000000 0.000000 0.000000 
-0.273033 0.248765 -0.382559 0.000000 0.000000 0.000000 
-0.275136 0.035271 -0.269626 0.000000 0.000000 0.000000 
-0.272564 0.178870 -0.399757 0.000000 0.000000 0.000000 
-0.274072 0.064253 -0.434298 0.000000 0.000000 0.000000 
-0.573969 0.455403 -2.009290 0.000000 0.000000 0.000000 
-0.922126 0.576029 -2.074740 0.000000 0.000000 0.000000 
-0.361303 0.370242 -2.058070 0.000000 0.000000 0.000000 
-0.901742 0.422724 -2.115650 0.000000 0.000000 0.000000 
-0.921794 0.333460 -1.918110 0.000000 0.000000 0.000000 
-0.613247 0.643150 -1.991330 0.000000 0.000000 0.000000 
-0.737453 0.613712 -1.767880 0.000000 0.000000 0.000000 
-0.622934 0.570446 -2.062070 0.000000 0.000000 0.000000 
-0.655248 0.411860 -2.098440 0.000000 0.000000 0.000000 
-0.273700 0.056318 0.064325 0.000000 0.000000 0.000000 
-0.336736 0.231398 0.145907 0.000000 0.000000 0.000000 
-0.299121 -0.085529 0.193449 0.000000 0.000000 0.000000 
-0.277203 0.017175 0.062822 0.000000 0.000000 0.000000 
-0.298083 -0.028013 -0.052927 0.000000 0.000000 0.000000 
-0.297981 0.270955 -0.421401 0.000000 0.000000 0.000000 
-0.274677 0.358226 -0.319284 0.000000 0.000000 0.000000 
-0.298078 -0.082233 0.154058 0.000000 0.000000 0.000000 
-0.280770 0.046678 0.177294 0.000000 0.000000 0.000000 
-0.446450 -0.135322 0.195601 0.000000 0.000000 0.000000 
-0.269855 0.111634 0.082524 0.000000 0.000000 0.000000 
-0.279491 0.086203 0.066816 0.000000 0.000000 0.000000 
-0.370777 -0.095706 0.023211 0.000000 0.000000 0.000000 
-0.287492 -0.044143 0.034414 0.000000 0.000000 0.000000 
-0.604778 0.127488 0.131205 0.000000 0.000000 0.000000 
-0.282106 0.046884 0.176249 0.000000 0.000000 0.000000 
-0.342451 0.146094 0.187133 0.000000 0.000000 0.000000 
-0.281382 0.088083 0.076356 0.000000 0.000000 0.000000 
-0.349898 0.255208 0.186282 0.000000 0.000000 0.000000 
-0.347683 0.256133 0.187869 0.000000 0.000000 0.000000 
-0.351830 0.081106 0.250437 0.000000 0.000000 0.000000 
-0.346422 0.128505 0.258368 0.000000 0.000000 0.000000 
-0.416763 0.242070 0.222877 0.000000 0.000000 0.000000 
-0.520699 0.055957 0.242597 0.000000 0.000000 0.000000 
-0.283478 0.113917 0.128996 0.000000 0.000000 0.000000 
-0.447445 0.228685 0.246329 0.000000 0.000000 0.000000 
-0.283205 0.101569 0.078859 0.000000 0.000000 0.000000 
-0.567771 0.199276 0.153070 0.000000 0.000000 0.000000 
-0.219813 0.555366 -0.968078 0.000000 0.000000 0.000000 
-0.355753 0.445454 -1.025300 0.000000 0.000000 0.000000 
-0.203202 0.463344 -1.236880 0.000000 0.000000 0.000000 
-0.266417 0.475957 -1.221320 0.000000 0.000000 0.000000 
-0.299429 0.512094 -1.179600 0.000000 0.000000 0.000000 
-0.281867 0.021770 -0.417074 0.000000 0.000000 0.000000 
-0.360074 0.119563 -0.211497 0.000000 0.000000 0.000000 
-0.263040 0.206585 -0.210583 0.000000 0.000000 0.000000 
-0.267318 0.216461 -0.192759 0.000000 0.000000 0.000000 
-0.270119 0.164321 -0.437628 0.000000 0.000000 0.000000 
-0.270902 0.270713 -0.409465 0.000000 0.000000 0.000000 
-0.277853 0.183107 -0.307642 0.000000 0.000000 0.000000 
-0.266369 0.091910 -0.526911 0.000000 0.000000 0.000000 
-0.272164 -0.002391 -0.434713 0.000000 0.000000 0.000000 
-0.275868 -0.009896 -0.394447 0.000000 0.000000 0.000000 
-0.362958 0.438612 -0.947170 0.000000 0.000000 0.000000 
-0.353688 0.421388 -0.971449 0.000000 0.000000 0.000000 
-0.193837 0.532988 -0.898316 0.000000 0.000000 0.000000 
-0.359612 0.438978 -0.992066 0.000000 0.000000 0.000000 
-0.182584 0.241124 -1.131910 0.000000 0.000000 0.000000 
-0.277700 0.066560 -0.425066 0.000000 0.000000 0.000000 
-0.362344 0.416496 -0.889144 0.000000 0.000000 0.000000 
-0.359305 0.431127 -0.932309 0.000000 0.000000 0.000000 
-0.353664 0.420561 -0.970976 0.000000 0.000000 0.000000 
-0.254876 0.554977 -0.968169 0.000000 0.000000 0.000000 
-0.321855 0.441675 -1.072590 0.000000 0.000000 0.000000 
-0.354927 0.416306 -0.943541 0.000000 0.000000 0.000000 
-0.195365 0.426092 -1.245710 0.000000 0.000000 0.000000 
-0.195372 0.404202 -1.250840 0.000000 0.000000 0.000000 
-0.251052 0.551356 -0.952383 0.000000 0.000000 0.000000 
-0.269992 0.271003 -0.410196 0.000000 0.000000 0.000000 
-0.271429 0.163416 -0.423393 0.000000 0.000000 0.000000 
-0.347830 0.206567 -0.195544 0.000000 0.000000 0.000000 
-0.331827 0.241471 -0.207925 0.000000 0.000000 0.000000 
-0.268281 0.147627 -0.455861 0.000000 0.000000 0.000000 
-0.277171 0.091688 -0.263572 0.000000 0.000000 0.000000 
-0.346221 0.150580 -0.235361 0.000000 0.000000 0.000000 
-0.345077 0.354670 -0.423086 0.000000 0.000000 0.000000 
-0.373183 0.359854 -0.425382 0.000000 0.000000 0.000000 
-0.348357 0.354526 -0.424626 0.000000 0.000000 0.000000 
-0.357031 0.180101 0.104091 0.000000 0.000000 0.000000 
-0.325132 0.104509 0.233605 0.000000 0.000000 0.000000 
-0.327747 0.104105 0.231593 0.000000 0.000000 0.000000 
-0.462347 0.169102 0.237307 0.000000 0.000000 0.000000 
-0.347135 0.202827 0.227441 0.000000 0.000000 0.000000 
-0.430473 -0.023491 0.221289 0.000000 0.000000 0.000000 
-0.347111 0.125122 -0.227838 0.000000 0.000000 0.000000 
-0.277096 0.069478 -0.331258 0.000000 0.000000 0.000000 
-0.272473 0.264346 -0.376367 0.000000 0.000000 0.000000 
-0.341673 0.224833 -0.191829 0.000000 0.000000 0.000000 
-0.331433 0.216557 -0.218903 0.000000 0.000000 0.000000 
-0.335555 0.301845 -0.325255 0.000000 0.000000 0.000000 
-0.336572 0.292998 -0.303292 0.000000 0.000000 0.000000 
-0.269859 0.112803 -0.441346 0.000000 0.000000 0.000000 
-0.281291 0.037440 -0.347970 0.000000 0.000000 0.000000 
-0.272066 0.148114 -0.408507 0.000000 0.000000 0.000000 
-0.280707 0.091288 -0.261703 0.000000 0.000000 0.000000 
-0.355367 0.416695 -0.944656 0.000000 0.000000 0.000000 
-0.361545 0.403550 -0.889172 0.000000 0.000000 0.000000 
-0.565154 0.589430 -2.003310 0.000000 0.000000 0.000000 
-0.531352 0.738904 -1.767560 0.000000 0.000000 0.000000 
-0.883992 0.619200 -1.718550 0.000000 0.000000 0.000000 
-0.588155 0.564276 -2.039380 0.000000 0.000000 0.000000 
-0.853740 0.734539 -1.764640 0.000000 0.000000 0.000000 
-0.681416 0.690192 -1.720920 0.000000 0.000000 0.000000 
-0.634259 0.703899 -1.609480 0.000000 0.000000 0.000000 
-0.357906 0.352690 -0.411871 0.000000 0.000000 0.000000 
-0.195399 0.389009 -1.255670 0.000000 0.000000 0.000000 
-0.192519 0.361387 -1.262650 0.000000 0.000000 0.000000 
-0.300608 0.511991 -1.179540 0.000000 0.000000 0.000000 
-0.272912 0.604755 -1.182830 0.000000 0.000000 0.000000 
-0.187535 0.317407 -1.272270 0.000000 0.000000 0.000000 
-0.226215 0.553432 -0.968317 0.000000 0.000000 0.000000 
-0.301654 0.498787 -1.189500 0.000000 0.000000 0.000000 
-0.203762 0.535502 -0.908313 0.000000 0.000000 0.000000 
-0.266733 0.184148 -0.466919 0.000000 0.000000 0.000000 
-0.347383 0.191127 -0.174458 0.000000 0.000000 0.000000 
-0.264776 0.165906 -0.215913 0.000000 0.000000 0.000000 
-0.620388 0.462232 -2.046920 0.000000 0.000000 0.000000 
-0.658836 0.662455 -1.951730 0.000000 0.000000 0.000000 
-0.621109 0.567077 -2.057590 0.000000 0.000000 0.000000 
-0.658889 0.658986 -1.946080 0.000000 0.000000 0.000000 
-0.846191 0.456020 -2.103330 0.000000 0.000000 0.000000 
-0.216582 0.311831 -1.351860 0.000000 0.000000 0.000000 
-0.344628 -0.035449 -0.283580 0.000000 0.000000 0.000000 
-0.276234 0.009480 -0.361064 0.000000 0.000000 0.000000 
-0.279899 0.011652 -0.365276 0.000000 0.000000 0.000000 
-0.273475 0.017622 -0.408717 0.000000 0.000000 0.000000 
-0.297111 -0.015843 -0.202699 0.000000 0.000000 0.000000 
-0.279930 0.189793 -0.306643 0.000000 0.000000 0.000000 
-0.269211 0.124162 -0.449835 0.000000 0.000000 0.000000 
-0.270101 0.081937 -0.400860 0.000000 0.000000 0.000000 
-0.327549 0.381131 -0.316837 0.000000 0.000000 0.000000 
-0.337968 0.216861 -0.212083 0.000000 0.000000 0.000000 
-0.340477 0.210528 -0.211842 0.000000 0.000000 0.000000 
-0.275588 0.255882 -0.345931 0.000000 0.000000 0.000000 
-0.346596 0.202335 -0.202902 0.000000 0.000000 0.000000 
-0.273512 0.207737 -0.384162 0.000000 0.000000 0.000000 
-0.378463 0.487666 -1.075800 0.000000 0.000000 0.000000 
-0.363508 0.419503 -0.918350 0.000000 0.000000 0.000000 
-0.351946 0.466092 -1.064760 0.000000 0.000000 0.000000 
-0.361225 0.430641 -0.951781 0.000000 0.000000 0.000000 
-0.355648 0.445749 -1.025240 0.000000 0.000000 0.000000 
-0.362844 0.439882 -0.947740 0.000000 0.000000 0.000000 
-0.301216 0.493706 -1.204250 0.000000 0.000000 0.000000 
-0.300221 0.561426 -1.167410 0.000000 0.000000 0.000000 
-0.292620 0.562787 -1.198460 0.000000 0.000000 0.000000 
-0.247732 0.570733 -1.060360 0.000000 0.000000 0.000000 
-0.298848 -0.070492 -0.095123 0.000000 0.000000 0.000000 
-0.358563 -0.144952 0.195628 0.000000 0.000000 0.000000 
-0.340492 0.157865 0.265463 0.000000 0.000000 0.000000 
-0.250536 0.524169 -0.856378 0.000000 0.000000 0.000000 
-0.301428 0.554746 -1.168200 0.000000 0.000000 0.000000 
-0.252850 0.100144 -0.531118 0.000000 0.000000 0.000000 
-0.269521 0.062445 -0.409860 0.000000 0.000000 0.000000 
-0.367697 0.365854 -0.441644 0.000000 0.000000 0.000000 
-0.267588 0.276079 -0.460640 0.000000 0.000000 0.000000 
-0.306355 -0.078195 0.007592 0.000000 0.000000 0.000000 
-0.268447 0.123222 -0.449967 0.000000 0.000000 0.000000 
-0.264527 0.109694 -0.504369 0.000000 0.000000 0.000000 
-0.261805 0.145799 -0.220552 0.000000 0.000000 0.000000 
-0.272773 0.088778 -0.425365 0.000000 0.000000 0.000000 
-0.257859 0.267040 -0.483825 0.000000 0.000000 0.000000 
-0.272562 0.096060 -0.451725 0.000000 0.000000 0.000000 
-0.274838 0.031466 -0.460221 0.000000 0.000000 0.000000 
-0.348949 -0.029977 -0.348461 0.000000 0.000000 0.000000 
-0.270714 0.194121 -0.426765 0.000000 0.000000 0.000000 
-0.356874 0.166578 -0.188348 0.000000 0.000000 0.000000 
-0.270762 0.193699 -0.426658 0.000000 0.000000 0.000000 
-0.275925 0.018887 -0.410600 0.000000 0.000000 0.000000 
-0.260349 0.218557 -0.496388 0.000000 0.000000 0.000000 
-0.274381 0.039115 -0.340806 0.000000 0.000000 0.000000 
-0.281496 -0.004352 -0.291128 0.000000 0.000000 0.000000 
-0.277873 0.037148 -0.325564 0.000000 0.000000 0.000000 
-0.362978 0.089187 -0.224672 0.000000 0.000000 0.000000 
-0.291943 0.026228 -0.348992 0.000000 0.000000 0.000000 
-0.275601 0.064349 -0.426730 0.000000 0.000000 0.000000 
-0.273601 0.208744 -0.384672 0.000000 0.000000 0.000000 
-0.213503 0.283139 -1.348520 0.000000 0.000000 0.000000 
-0.239902 0.208922 -1.285580 0.000000 0.000000 0.000000 
-0.235009 0.134828 -1.004240 0.000000 0.000000 0.000000 
-0.244738 0.224277 -1.322610 0.000000 0.000000 0.000000 
-0.239835 0.214494 -1.289830 0.000000 0.000000 0.000000 
-0.223455 0.156847 -1.104380 0.000000 0.000000 0.000000 
-0.216953 0.222223 -1.081830 0.000000 0.000000 0.000000 
-0.210117 0.485249 -1.235580 0.000000 0.000000 0.000000 
-0.248795 0.179187 -1.156220 0.000000 0.000000 0.000000 
-0.239138 0.213319 -1.288250 0.000000 0.000000 0.000000 
-0.225213 0.176391 -1.196620 0.000000 0.000000 0.000000 
-0.212004 0.439002 -1.983720 0.000000 0.000000 0.000000 
-0.266957 0.526884 -1.989340 0.000000 0.000000 0.000000 
-0.917999 0.476026 -2.107840 0.000000 0.000000 0.000000 
-0.846058 0.456679 -2.103510 0.000000 0.000000 0.000000 
-0.948173 0.620209 -1.685040 0.000000 0.000000 0.000000 
-0.775653 0.607032 -1.746830 0.000000 0.000000 0.000000 
-0.977003 0.421034 -1.755570 0.000000 0.000000 0.000000 
-0.974591 0.479496 -1.734740 0.000000 0.000000 0.000000 
-1.017370 0.500353 -1.804050 0.000000 0.000000 0.000000 
-0.355576 0.416359 -0.944148 0.000000 0.000000 0.000000 
-0.350798 0.446916 -1.060420 0.000000 0.000000 0.000000 
-0.319491 0.313240 -0.329538 0.000000 0.000000 0.000000 
-0.361881 -0.119577 0.202823 0.000000 0.000000 0.000000 
-0.521660 -0.028882 0.220614 0.000000 0.000000 0.000000 
-0.324576 0.094963 0.249473 0.000000 0.000000 0.000000 
-0.337658 0.360308 -0.235283 0.000000 0.000000 0.000000 
-0.327687 0.380563 -0.316654 0.000000 0.000000 0.000000 
-0.383408 0.378526 -0.423173 0.000000 0.000000 0.000000 
-0.354427 0.421722 -0.972376 0.000000 0.000000 0.000000 
-0.325150 0.271831 -0.175080 0.000000 0.000000 0.000000 
-0.294793 0.233303 -0.318323 0.000000 0.000000 0.000000 
-0.292018 0.238986 -0.327644 0.000000 0.000000 0.000000 
-0.325866 0.310073 -0.202273 0.000000 0.000000 0.000000 
-0.327957 0.282802 -0.210660 0.000000 0.000000 0.000000 
-0.274037 0.208343 -0.384915 0.000000 0.000000 0.000000 
-0.271728 0.147161 -0.408120 0.000000 0.000000 0.000000 
-0.273179 0.230360 -0.396903 0.000000 0.000000 0.000000 
-0.536454 -0.149892 0.197552 0.000000 0.000000 0.000000 
-0.293227 -0.180217 -0.069559 0.000000 0.000000 0.000000 
-0.300383 -0.177039 -0.077042 0.000000 0.000000 0.000000 
-0.286027 -0.159676 -0.146184 0.000000 0.000000 0.000000 
-0.570796 -0.173667 0.127612 0.000000 0.000000 0.000000 
-0.299821 -0.077542 -0.149323 0.000000 0.000000 0.000000 
-0.188365 0.327678 -1.268780 0.000000 0.000000 0.000000 
-0.249304 0.515358 -0.855655 0.000000 0.000000 0.000000 
-0.361299 0.420157 -0.963085 0.000000 0.000000 0.000000 
-0.336314 0.252751 -0.307463 0.000000 0.000000 0.000000 
-0.329940 0.214983 -0.218708 0.000000 0.000000 0.000000 
-0.324888 0.258503 -0.199748 0.000000 0.000000 0.000000 
-0.352957 0.465793 -1.065620 0.000000 0.000000 0.000000 
-0.353619 0.426934 -1.000810 0.000000 0.000000 0.000000 
-0.362935 0.421401 -0.918073 0.000000 0.000000 0.000000 
-0.362225 0.429801 -0.951791 0.000000 0.000000 0.000000 
-0.351389 0.473351 -1.053520 0.000000 0.000000 0.000000 
-0.353320 0.463412 -1.042780 0.000000 0.000000 0.000000 
-0.363694 0.420359 -0.918372 0.000000 0.000000 0.000000 
-0.352288 0.472954 -1.053560 0.000000 0.000000 0.000000 
-0.350204 0.413113 -0.932835 0.000000 0.000000 0.000000 
-0.357276 0.138895 -0.195972 0.000000 0.000000 0.000000 
-0.358627 0.139815 -0.196420 0.000000 0.000000 0.000000 
-0.304738 0.065403 -0.241646 0.000000 0.000000 0.000000 
-0.360061 0.140221 -0.197919 0.000000 0.000000 0.000000 
-0.279804 0.074503 -0.312484 0.000000 0.000000 0.000000 
-0.397656 0.184212 0.220476 0.000000 0.000000 0.000000 
-0.551942 0.202914 0.158008 0.000000 0.000000 0.000000 
-0.553002 0.138722 0.145215 0.000000 0.000000 0.000000 
-0.495430 0.174403 0.203906 0.000000 0.000000 0.000000 
-0.307887 0.203146 0.049683 0.000000 0.000000 0.000000 
-0.462600 0.174440 0.235790 0.000000 0.000000 0.000000 
-0.345582 0.441297 -1.032730 0.000000 0.000000 0.000000 
-0.304293 0.113809 0.180876 0.000000 0.000000 0.000000 
-0.347134 0.213627 0.177267 0.000000 0.000000 0.000000 
-0.275532 0.135969 -0.348816 0.000000 0.000000 0.000000 
-0.260569 0.019743 -0.207342 0.000000 0.000000 0.000000 
-0.278314 0.158417 -0.299034 0.000000 0.000000 0.000000 
-0.271951 0.117553 -0.417821 0.000000 0.000000 0.000000 
-0.277148 0.129841 -0.326466 0.000000 0.000000 0.000000 
-0.280162 0.035900 -0.281090 0.000000 0.000000 0.000000 
-0.269644 0.176462 -0.441623 0.000000 0.000000 0.000000 
-0.336365 0.285967 -0.309026 0.000000 0.000000 0.000000 
-0.265472 0.278219 -0.460036 0.000000 0.000000 0.000000 
-0.281629 0.231123 -0.295158 0.000000 0.000000 0.000000 
-0.264973 0.206152 -0.212775 0.000000 0.000000 0.000000 
-0.271621 0.230905 -0.396820 0.000000 0.000000 0.000000 
-0.263495 0.133530 -0.499115 0.000000 0.000000 0.000000 
-0.277382 0.238375 -0.319051 0.000000 0.000000 0.000000 
-0.294172 0.238364 -0.327447 0.000000 0.000000 0.000000 
-0.290040 0.233402 -0.301379 0.000000 0.000000 0.000000 
-0.250373 0.529855 -0.873112 0.000000 0.000000 0.000000 
-0.265527 0.133991 -0.498252 0.000000 0.000000 0.000000 
-0.343808 0.367539 -0.466122 0.000000 0.000000 0.000000 
-0.182543 0.239924 -1.125890 0.000000 0.000000 0.000000 
-0.271748 0.296792 -1.354160 0.000000 0.000000 0.000000 
-0.241834 0.281563 -1.367840 0.000000 0.000000 0.000000 
-0.230146 0.309487 -1.347020 0.000000 0.000000 0.000000 
-0.395732 0.490691 -1.220990 0.000000 0.000000 0.000000 
-0.395162 0.474323 -1.219500 0.000000 0.000000 0.000000 
-0.228165 0.207320 -0.993449 0.000000 0.000000 0.000000 
-0.231700 0.186083 -0.953900 0.000000 0.000000 0.000000 
-0.538603 0.571425 -2.032270 0.000000 0.000000 0.000000 
-0.812965 0.588357 -1.730960 0.000000 0.000000 0.000000 
-0.692542 0.494436 -2.082810 0.000000 0.000000 0.000000 
-0.659829 0.446833 -2.097160 0.000000 0.000000 0.000000 
-0.938397 0.523055 -2.089660 0.000000 0.000000 0.000000 
-0.769110 0.703294 -1.991620 0.000000 0.000000 0.000000 
-0.731556 0.615172 -1.751770 0.000000 0.000000 0.000000 
-0.738174 0.457574 -2.095260 0.000000 0.000000 0.000000 
-0.783310 0.542187 -1.738930 0.000000 0.000000 0.000000 
-0.568351 0.545583 -2.015640 0.000000 0.000000 0.000000 
-0.430114 0.518945 -2.005230 0.000000 0.000000 0.000000 
-0.690301 0.602306 -2.046610 0.000000 0.000000 0.000000 
-0.855401 0.643467 -2.054500 0.000000 0.000000 0.000000 
-0.352841 0.373639 -2.058400 0.000000 0.000000 0.000000 
-0.245610 0.476874 -1.175690 0.000000 0.000000 0.000000 
-0.384560 0.491532 -1.228530 0.000000 0.000000 0.000000 
-0.324424 0.499691 -1.213480 0.000000 0.000000 0.000000 
-0.399556 0.481863 -1.224160 0.000000 0.000000 0.000000 
-0.212092 0.551303 -0.950380 0.000000 0.000000 0.000000 
-0.235445 0.563964 -1.015870 0.000000 0.000000 0.000000 
-0.339104 0.442902 -1.072710 0.000000 0.000000 0.000000 
-0.351612 0.425214 -0.993142 0.000000 0.000000 0.000000 
-0.252510 0.560973 -1.013740 0.000000 0.000000 0.000000 
-0.343414 0.489321 -1.071260 0.000000 0.000000 0.000000 
-0.207095 0.276279 -1.291810 0.000000 0.000000 0.000000 
-0.194935 0.403737 -1.250500 0.000000 0.000000 0.000000 
-0.259989 0.566368 -1.060330 0.000000 0.000000 0.000000 
-0.263556 0.564272 -1.060380 0.000000 0.000000 0.000000 
-0.298142 0.558800 -1.197680 0.000000 0.000000 0.000000 
-0.394618 0.475722 -1.220580 0.000000 0.000000 0.000000 
-0.223691 0.555449 -1.424250 0.000000 0.000000 0.000000 
-0.422538 0.630111 -1.323150 0.000000 0.000000 0.000000 
-0.244532 0.574419 -1.431400 0.000000 0.000000 0.000000 
-0.468112 0.664326 -1.455930 0.000000 0.000000 0.000000 
-0.407804 0.608212 -1.215860 0.000000 0.000000 0.000000 
-0.234731 0.520808 -1.473690 0.000000 0.000000 0.000000 
-0.426050 0.634618 -1.335430 0.000000 0.000000 0.000000 
-0.226704 0.171969 -1.174360 0.000000 0.000000 0.000000 
-0.267622 0.219891 -0.902861 0.000000 0.000000 0.000000 
-0.190952 0.096132 -0.791082 0.000000 0.000000 0.000000 
-0.187438 0.496431 -1.395570 0.000000 0.000000 0.000000 
-0.280949 0.662210 -1.932530 0.000000 0.000000 0.000000 
-0.428491 0.676647 -1.568490 0.000000 0.000000 0.000000 
-0.464698 0.742701 -1.777110 0.000000 0.000000 0.000000 
-0.648810 0.648195 -1.980830 0.000000 0.000000 0.000000 
-0.587971 0.531611 -2.016940 0.000000 0.000000 0.000000 
-0.522072 0.761235 -1.921590 0.000000 0.000000 0.000000 
-0.565235 0.635996 -1.983050 0.000000 0.000000 0.000000 
-0.469887 0.589706 -1.992220 0.000000 0.000000 0.000000 
-1.026510 0.552401 -1.946030 0.000000 0.000000 0.000000 
-0.718122 0.659990 -1.719660 0.000000 0.000000 0.000000 
-0.336593 0.564627 -1.018980 0.000000 0.000000 0.000000 
-0.347354 0.480108 -1.078630 0.000000 0.000000 0.000000 
-0.352435 0.543190 -1.049690 0.000000 0.000000 0.000000 
-0.358253 0.526038 -0.885620 0.000000 0.000000 0.000000 
-0.354982 0.509885 -0.882352 0.000000 0.000000 0.000000 
-0.198833 0.534220 -0.908480 0.000000 0.000000 0.000000 
-0.349613 0.384858 -0.891718 0.000000 0.000000 0.000000 
-0.359077 0.425433 -0.945446 0.000000 0.000000 0.000000 
-0.187791 0.559181 -0.983032 0.000000 0.000000 0.000000 
-0.253081 0.549329 -0.968174 0.000000 0.000000 0.000000 
-0.837781 0.603388 -1.743780 0.000000 0.000000 0.000000 
-0.578335 0.525399 -2.006650 0.000000 0.000000 0.000000 
-0.818895 0.606969 -1.717550 0.000000 0.000000 0.000000 
-0.651206 0.693502 -1.532020 0.000000 0.000000 0.000000 
-0.701974 0.364614 -2.090560 0.000000 0.000000 0.000000 
-0.898649 0.423348 -2.113860 0.000000 0.000000 0.000000 
-0.467754 0.662293 -1.451410 0.000000 0.000000 0.000000 
-0.332312 0.531374 -1.037520 0.000000 0.000000 0.000000 
-0.357373 0.440322 -0.923983 0.000000 0.000000 0.000000 
-0.256824 0.566836 -1.059640 0.000000 0.000000 0.000000 
-0.297039 0.513143 -1.179450 0.000000 0.000000 0.000000 
-0.356211 0.571603 -1.069800 0.000000 0.000000 0.000000 
-0.350930 0.561987 -1.032720 0.000000 0.000000 0.000000 
-0.357529 0.439002 -0.998896 0.000000 0.000000 0.000000 
-0.298743 0.490157 -1.187410 0.000000 0.000000 0.000000 
-0.233677 0.139406 -0.924892 0.000000 0.000000 0.000000 
-0.224080 0.184676 -1.187680 0.000000 0.000000 0.000000 
-0.220743 0.152054 -1.085140 0.000000 0.000000 0.000000 
-0.230372 0.126497 -0.930587 0.000000 0.000000 0.000000 
-0.287997 0.580461 -1.156770 0.000000 0.000000 0.000000 
-0.218375 0.317536 -1.349290 0.000000 0.000000 0.000000 
-0.442938 0.524247 -1.996570 0.000000 0.000000 0.000000 
-0.217077 0.529375 -2.001880 0.000000 0.000000 0.000000 
-0.269960 0.101173 -0.474161 0.000000 0.000000 0.000000 
-0.347124 0.126541 -0.229484 0.000000 0.000000 0.000000 
-0.276760 0.078172 -0.327264 0.000000 0.000000 0.000000 
-0.280281 0.011785 -0.324536 0.000000 0.000000 0.000000 
-0.266880 0.104926 -0.500611 0.000000 0.000000 0.000000 
-0.256458 0.263248 -0.488465 0.000000 0.000000 0.000000 
-0.329149 0.083322 -0.231736 0.000000 0.000000 0.000000 
-0.276405 0.192568 -0.313786 0.000000 0.000000 0.000000 
-0.269081 0.277654 -0.436541 0.000000 0.000000 0.000000 
-0.276381 0.353184 -0.321073 0.000000 0.000000 0.000000 
-0.336392 0.357824 -0.272180 0.000000 0.000000 0.000000 
-0.338940 0.217300 -0.211750 0.000000 0.000000 0.000000 
-0.257264 0.168752 -0.205885 0.000000 0.000000 0.000000 
-0.256365 0.167924 -0.205687 0.000000 0.000000 0.000000 
-1.007310 0.541992 -1.782360 0.000000 0.000000 0.000000 
-0.723751 0.619330 -1.694960 0.000000 0.000000 0.000000 
-0.709043 0.680217 -1.694650 0.000000 0.000000 0.000000 
-1.011910 0.512013 -1.831140 0.000000 0.000000 0.000000 
-0.684716 0.529558 -2.059280 0.000000 0.000000 0.000000 
-0.714223 0.634270 -2.062150 0.000000 0.000000 0.000000 
-0.686554 0.555588 -2.064260 0.000000 0.000000 0.000000 
-0.526732 0.533076 -2.018120 0.000000 0.000000 0.000000 
-0.276518 0.383382 -0.318104 0.000000 0.000000 0.000000 
-0.330487 0.260611 -0.218413 0.000000 0.000000 0.000000 
-0.347906 0.417512 -0.973728 0.000000 0.000000 0.000000 
-0.358851 0.419687 -0.955934 0.000000 0.000000 0.000000 
-0.360572 0.430184 -0.934024 0.000000 0.000000 0.000000 
-0.165129 0.216170 -1.402890 0.000000 0.000000 0.000000 
-0.974689 0.698103 -1.609940 0.000000 0.000000 0.000000 
-0.936314 0.622004 -1.624030 0.000000 0.000000 0.000000 
-0.654518 0.761364 -1.927260 0.000000 0.000000 0.000000 
-1.013910 0.514966 -1.829930 0.000000 0.000000 0.000000 
-0.704023 0.611702 -2.055440 0.000000 0.000000 0.000000 
-0.193739 0.633118 -1.961280 0.000000 0.000000 0.000000 
-0.220290 0.649368 -1.939870 0.000000 0.000000 0.000000 
-0.268392 0.686372 -1.925690 0.000000 0.000000 0.000000 
-0.331873 0.618340 -1.966510 0.000000 0.000000 0.000000 
-0.195744 0.637983 -1.959690 0.000000 0.000000 0.000000 
-0.199503 0.664777 -1.947130 0.000000 0.000000 0.000000 
-0.189075 0.641388 -1.964300 0.000000 0.000000 0.000000 
-0.266383 0.628073 -2.004790 0.000000 0.000000 0.000000 
-0.294952 0.600197 -1.986250 0.000000 0.000000 0.000000 
-0.553934 0.708757 -1.621200 0.000000 0.000000 0.000000 
-0.363749 0.435679 -0.922731 0.000000 0.000000 0.000000 
-0.357687 0.406859 -0.914240 0.000000 0.000000 0.000000 
-0.261748 0.019001 -0.206536 0.000000 0.000000 0.000000 
-0.296624 -0.008475 -0.226619 0.000000 0.000000 0.000000 
-0.290971 -0.021083 -0.200079 0.000000 0.000000 0.000000 
-0.244846 0.246084 0.093952 0.000000 0.000000 0.000000 
-0.194300 0.425833 -1.246170 0.000000 0.000000 0.000000 
-0.255889 0.550618 -0.952863 0.000000 0.000000 0.000000 
-0.300959 0.561581 -1.167450 0.000000 0.000000 0.000000 
-0.296160 0.524784 -1.210620 0.000000 0.000000 0.000000 
-0.351228 0.480998 -1.073630 0.000000 0.000000 0.000000 
-0.292761 0.495404 -1.205610 0.000000 0.000000 0.000000 
-0.350524 0.172285 -0.176225 0.000000 0.000000 0.000000 
-0.336997 0.289994 -0.322783 0.000000 0.000000 0.000000 
-0.336104 0.294362 -0.319518 0.000000 0.000000 0.000000 
-0.273544 0.226422 -0.379804 0.000000 0.000000 0.000000 
-0.343413 0.209363 -0.208252 0.000000 0.000000 0.000000 
-0.277577 0.125207 -0.308257 0.000000 0.000000 0.000000 
-0.265080 0.115434 -0.197641 0.000000 0.000000 0.000000 
-0.270403 0.264116 -0.375635 0.000000 0.000000 0.000000 
-0.251879 0.121139 -0.221362 0.000000 0.000000 0.000000 
-0.291645 0.233239 -0.315196 0.000000 0.000000 0.000000 
-0.276571 0.125426 -0.308475 0.000000 0.000000 0.000000 
-0.329108 0.217035 -0.222087 0.000000 0.000000 0.000000 
-0.259847 0.170430 -0.216846 0.000000 0.000000 0.000000 
-0.280700 0.118240 -0.270293 0.000000 0.000000 0.000000 
-0.279834 0.010836 -0.361857 0.000000 0.000000 0.000000 
-0.332873 0.243553 -0.204918 0.000000 0.000000 0.000000 
-0.337902 0.292391 -0.305063 0.000000 0.000000 0.000000 
-0.339687 0.170879 -0.246227 0.000000 0.000000 0.000000 
-0.342210 0.077685 -0.220695 0.000000 0.000000 0.000000 
-0.342999 0.078082 -0.221522 0.000000 0.000000 0.000000 
-0.279706 0.125913 -0.267904 0.000000 0.000000 0.000000 
-0.259795 0.184169 -0.212673 0.000000 0.000000 0.000000 
-0.348844 0.191017 -0.176119 0.000000 0.000000 0.000000 
-0.348954 0.172281 -0.175978 0.000000 0.000000 0.000000 
-0.226636 0.129361 -0.994683 0.000000 0.000000 0.000000 
-0.221583 0.147389 -1.072150 0.000000 0.000000 0.000000 
-0.225905 0.125891 -0.965719 0.000000 0.000000 0.000000 
-0.222409 0.184555 -1.187640 0.000000 0.000000 0.000000 
-0.220576 0.165597 -1.139190 0.000000 0.000000 0.000000 
-0.194846 0.254235 -1.184790 0.000000 0.000000 0.000000 
-0.237100 0.291524 -1.366440 0.000000 0.000000 0.000000 
-0.795977 0.597337 -1.730940 0.000000 0.000000 0.000000 
-0.848977 0.608795 -1.709820 0.000000 0.000000 0.000000 
-0.528300 0.531061 -2.010590 0.000000 0.000000 0.000000 
-0.676384 0.640763 -1.953650 0.000000 0.000000 0.000000 
-0.502880 0.527466 -2.005800 0.000000 0.000000 0.000000 
-0.916296 0.424335 -2.109560 0.000000 0.000000 0.000000 
-0.211298 0.590691 -1.990040 0.000000 0.000000 0.000000 
-0.223568 0.414387 -2.000550 0.000000 0.000000 0.000000 
-0.588684 0.657620 -1.950410 0.000000 0.000000 0.000000 
-0.530060 0.586341 -1.991870 0.000000 0.000000 0.000000 
-0.524901 0.606392 -1.869780 0.000000 0.000000 0.000000 
-0.476098 0.582662 -1.966790 0.000000 0.000000 0.000000 
-0.477436 0.629847 -1.944460 0.000000 0.000000 0.000000 
-0.193787 0.343252 -1.787070 0.000000 0.000000 0.000000 
-0.193624 0.343614 -1.787610 0.000000 0.000000 0.000000 
-0.268395 0.453966 -1.999530 0.000000 0.000000 0.000000 
-0.546489 0.644966 -1.954660 0.000000 0.000000 0.000000 
-0.880169 0.592185 -1.875740 0.000000 0.000000 0.000000 
-0.893398 0.607326 -1.902590 0.000000 0.000000 0.000000 
-0.644773 0.637793 -2.043380 0.000000 0.000000 0.000000 
-0.670690 0.450844 -2.094080 0.000000 0.000000 0.000000 
-0.345257 0.524276 -1.986810 0.000000 0.000000 0.000000 
-0.230953 0.126613 -0.934829 0.000000 0.000000 0.000000 
-0.231017 0.121547 -0.932063 0.000000 0.000000 0.000000 
-0.296150 0.515405 -1.211900 0.000000 0.000000 0.000000 
-0.285371 0.511335 -1.228540 0.000000 0.000000 0.000000 
-0.190958 0.640121 -1.963810 0.000000 0.000000 0.000000 
-0.371332 0.617075 -1.307720 0.000000 0.000000 0.000000 
-0.520914 0.611698 -1.235850 0.000000 0.000000 0.000000 
-0.278986 0.629192 -1.302020 0.000000 0.000000 0.000000 
-0.411342 0.573615 -1.577320 0.000000 0.000000 0.000000 
-0.276511 0.135282 -0.348855 0.000000 0.000000 0.000000 
-0.264348 0.219730 -0.496428 0.000000 0.000000 0.000000 
-0.243268 0.122440 -0.527127 0.000000 0.000000 0.000000 
-0.236796 0.120801 -0.524757 0.000000 0.000000 0.000000 
-0.296476 0.273649 -0.527866 0.000000 0.000000 0.000000 
-0.333018 0.291980 -0.323740 0.000000 0.000000 0.000000 
-0.272994 0.224094 -0.396389 0.000000 0.000000 0.000000 
-0.273816 0.303101 -0.332060 0.000000 0.000000 0.000000 
-0.259625 0.334171 -0.483024 0.000000 0.000000 0.000000 
-0.343217 0.238115 -0.170135 0.000000 0.000000 0.000000 
-0.265380 0.104582 -0.499657 0.000000 0.000000 0.000000 
-0.319937 0.490524 -1.027890 0.000000 0.000000 0.000000 
-0.288518 -0.028890 -0.256122 0.000000 0.000000 0.000000 
-0.270414 0.195965 -0.444664 0.000000 0.000000 0.000000 
-0.278750 0.336847 -0.326591 0.000000 0.000000 0.000000 
-0.270072 0.053796 -0.495092 0.000000 0.000000 0.000000 
-0.279829 0.073189 -0.312938 0.000000 0.000000 0.000000 
-0.255610 0.249768 -0.494436 0.000000 0.000000 0.000000 
-0.265378 0.140606 -0.489706 0.000000 0.000000 0.000000 
-0.250204 0.104550 -0.531164 0.000000 0.000000 0.000000 
-0.272890 0.107478 -0.397152 0.000000 0.000000 0.000000 
-0.289128 0.119281 -0.447220 0.000000 0.000000 0.000000 
-0.274013 0.120015 -0.386841 0.000000 0.000000 0.000000 
-0.275543 0.247488 -0.345079 0.000000 0.000000 0.000000 
-0.277362 0.052072 -0.385720 0.000000 0.000000 0.000000 
-0.329305 0.107485 -0.244704 0.000000 0.000000 0.000000 
-0.255352 0.248319 -0.496732 0.000000 0.000000 0.000000 
-0.223115 0.116626 -0.518696 0.000000 0.000000 0.000000 
-0.350342 0.463484 -1.038610 0.000000 0.000000 0.000000 
-0.222558 0.562670 -1.005530 0.000000 0.000000 0.000000 
-0.617917 0.646277 -2.025280 0.000000 0.000000 0.000000 
-0.742154 0.603799 -1.768350 0.000000 0.000000 0.000000 
-0.649585 0.646920 -1.963370 0.000000 0.000000 0.000000 
-0.726221 0.632234 -1.708810 0.000000 0.000000 0.000000 
-0.589253 0.692837 -1.940540 0.000000 0.000000 0.000000 
-0.408765 0.663139 -1.942560 0.000000 0.000000 0.000000 
-0.634854 0.744453 -1.773140 0.000000 0.000000 0.000000 
-0.881806 0.676826 -1.569770 0.000000 0.000000 0.000000 
-0.713626 0.632369 -2.027750 0.000000 0.000000 0.000000 
-0.623236 0.537669 -2.062660 0.000000 0.000000 0.000000 
-0.983169 0.611255 -1.923900 0.000000 0.000000 0.000000 
-0.737824 0.457881 -2.096040 0.000000 0.000000 0.000000 
-0.748581 0.415205 -2.084480 0.000000 0.000000 0.000000 
-0.704760 0.416181 -2.111310 0.000000 0.000000 0.000000 
-0.856757 0.741900 -1.806750 0.000000 0.000000 0.000000 
-0.761702 0.482063 -2.093490 0.000000 0.000000 0.000000 
-0.688872 0.552276 -2.068810 0.000000 0.000000 0.000000 
-0.435864 0.551322 -1.987850 0.000000 0.000000 0.000000 
-0.413672 0.608378 -1.209510 0.000000 0.000000 0.000000 
-0.241841 0.575642 -1.432000 0.000000 0.000000 0.000000 
-0.202580 0.526803 -1.490660 0.000000 0.000000 0.000000 
-0.190579 0.474038 -1.523160 0.000000 0.000000 0.000000 
-0.412268 0.608124 -1.209630 0.000000 0.000000 0.000000 
-0.239742 0.526879 -1.478190 0.000000 0.000000 0.000000 
-0.410828 0.609980 -1.210050 0.000000 0.000000 0.000000 
-0.301855 0.589078 -1.169710 0.000000 0.000000 0.000000 
-0.308396 0.584362 -1.165670 0.000000 0.000000 0.000000 
-0.266893 0.447772 -1.323530 0.000000 0.000000 0.000000 
-0.547255 0.704843 -1.604050 0.000000 0.000000 0.000000 
-0.411835 0.638506 -1.964730 0.000000 0.000000 0.000000 
-0.438519 0.714728 -1.916870 0.000000 0.000000 0.000000 
-0.443429 0.691376 -1.924510 0.000000 0.000000 0.000000 
-0.340729 0.653228 -1.937680 0.000000 0.000000 0.000000 
-0.438014 0.722530 -1.920340 0.000000 0.000000 0.000000 
-0.340995 0.653677 -1.939430 0.000000 0.000000 0.000000 
-0.408052 0.664260 -1.940730 0.000000 0.000000 0.000000 
-0.408178 0.776195 -1.907510 0.000000 0.000000 0.000000 
-0.406356 0.762782 -1.917280 0.000000 0.000000 0.000000 
-0.351753 0.775740 -1.907240 0.000000 0.000000 0.000000 
-0.396287 0.629447 -2.023010 0.000000 0.000000 0.000000 
-0.419850 0.728354 -1.924310 0.000000 0.000000 0.000000 
-0.414345 0.648736 -1.952800 0.000000 0.000000 0.000000 
-0.275461 0.749938 -1.912790 0.000000 0.000000 0.000000 
-0.281008 0.767991 -1.903800 0.000000 0.000000 0.000000 
-0.412515 0.638253 -1.964360 0.000000 0.000000 0.000000 
-0.260580 0.434954 -1.054400 0.000000 0.000000 0.000000 
-0.192144 0.436036 -1.243990 0.000000 0.000000 0.000000 
-0.238798 0.157427 -0.934488 0.000000 0.000000 0.000000 
-0.207753 0.557948 -1.016030 0.000000 0.000000 0.000000 
-0.794314 0.596735 -1.730650 0.000000 0.000000 0.000000 
-0.778608 0.571934 -1.731490 0.000000 0.000000 0.000000 
-0.439396 0.522856 -1.346910 0.000000 0.000000 0.000000 
-0.416253 0.503670 -1.382280 0.000000 0.000000 0.000000 
-0.195259 0.438091 -1.534040 0.000000 0.000000 0.000000 
-0.420346 0.500303 -1.426180 0.000000 0.000000 0.000000 
-0.351875 0.463248 -1.042460 0.000000 0.000000 0.000000 
-0.181685 0.241744 -1.134140 0.000000 0.000000 0.000000 
-0.358487 0.436409 -1.003010 0.000000 0.000000 0.000000 
-0.332776 0.645051 -1.941770 0.000000 0.000000 0.000000 
-0.199979 0.533385 -1.984610 0.000000 0.000000 0.000000 
-0.309057 0.518789 -1.991660 0.000000 0.000000 0.000000 
-0.306343 0.562205 -1.997470 0.000000 0.000000 0.000000 
-0.310585 0.654378 -1.939310 0.000000 0.000000 0.000000 
-0.344774 0.526657 -1.980760 0.000000 0.000000 0.000000 
-0.341113 0.543023 -1.977680 0.000000 0.000000 0.000000 
-0.300049 0.532494 -1.997530 0.000000 0.000000 0.000000 
-0.321470 0.642187 -1.954660 0.000000 0.000000 0.000000 
-0.199833 0.533155 -1.984010 0.000000 0.000000 0.000000 
-0.472856 0.583083 -1.982170 0.000000 0.000000 0.000000 
-0.425156 0.549500 -1.479960 0.000000 0.000000 0.000000 
-0.676269 0.634511 -2.030880 0.000000 0.000000 0.000000 
-0.512744 0.531271 -2.005450 0.000000 0.000000 0.000000 
-0.737735 0.457826 -2.098540 0.000000 0.000000 0.000000 
-0.689427 0.630316 -2.030560 0.000000 0.000000 0.000000 
-0.631859 0.628251 -2.047810 0.000000 0.000000 0.000000 
-0.558750 0.535896 -2.027370 0.000000 0.000000 0.000000 
-0.561920 0.529391 -2.004810 0.000000 0.000000 0.000000 
-0.559663 0.532952 -2.019020 0.000000 0.000000 0.000000 
-0.767553 0.600578 -1.713610 0.000000 0.000000 0.000000 
-0.923381 0.502390 -2.088240 0.000000 0.000000 0.000000 
-0.941195 0.557334 -2.080090 0.000000 0.000000 0.000000 
-0.189704 0.466338 -1.533040 0.000000 0.000000 0.000000 
-0.284384 0.602589 -1.209850 0.000000 0.000000 0.000000 
-0.274767 0.625355 -1.301630 0.000000 0.000000 0.000000 
-0.422011 0.688674 -1.651590 0.000000 0.000000 0.000000 
-0.387354 0.618285 -1.672720 0.000000 0.000000 0.000000 
-0.464801 0.662823 -1.454060 0.000000 0.000000 0.000000 
-0.439682 0.523026 -1.346270 0.000000 0.000000 0.000000 
-0.428354 0.536372 -1.429460 0.000000 0.000000 0.000000 
-0.295255 0.562441 -1.197600 0.000000 0.000000 0.000000 
-0.441078 0.526961 -1.375720 0.000000 0.000000 0.000000 
-0.459379 0.424529 -2.008370 0.000000 0.000000 0.000000 
-0.446103 0.381966 -2.010790 0.000000 0.000000 0.000000 
-0.275774 0.426885 -2.010360 0.000000 0.000000 0.000000 
-0.454911 0.467669 -1.987010 0.000000 0.000000 0.000000 
-0.425531 0.679960 -1.643390 0.000000 0.000000 0.000000 
-0.460872 0.426760 -2.018710 0.000000 0.000000 0.000000 
-0.441885 0.539661 -1.985610 0.000000 0.000000 0.000000 
-0.750884 0.613790 -1.766980 0.000000 0.000000 0.000000 
-0.656951 0.503456 -2.072080 0.000000 0.000000 0.000000 
-0.424130 0.557438 -1.992620 0.000000 0.000000 0.000000 
-0.721689 0.705073 -1.651760 0.000000 0.000000 0.000000 
-0.903751 0.678004 -1.619580 0.000000 0.000000 0.000000 
-0.256508 0.527495 -1.993640 0.000000 0.000000 0.000000 
-0.347016 0.775046 -1.912190 0.000000 0.000000 0.000000 
-0.346892 0.437170 -1.069440 0.000000 0.000000 0.000000 
-0.348855 0.432799 -1.028080 0.000000 0.000000 0.000000 
-0.263505 0.433517 -1.054030 0.000000 0.000000 0.000000 
-0.123825 0.552286 -2.036240 0.000000 0.000000 0.000000 
-0.191466 0.417637 -1.971210 0.000000 0.000000 0.000000 
-0.184945 0.334982 -1.268790 0.000000 0.000000 0.000000 
-0.340829 0.440896 -1.074020 0.000000 0.000000 0.000000 
-0.346430 0.433893 -1.029040 0.000000 0.000000 0.000000 
-0.339864 0.441093 -1.073660 0.000000 0.000000 0.000000 
-0.253335 0.631126 -2.001730 0.000000 0.000000 0.000000 
-0.375819 0.615919 -1.304510 0.000000 0.000000 0.000000 
-0.366713 0.625053 -1.313840 0.000000 0.000000 0.000000 
-0.305559 0.495607 -1.190260 0.000000 0.000000 0.000000 
-0.256280 0.529256 -1.999760 0.000000 0.000000 0.000000 
-0.268384 0.530999 -2.000060 0.000000 0.000000 0.000000 
-0.142738 0.612653 -1.873520 0.000000 0.000000 0.000000 
-0.684457 0.503182 -2.073390 0.000000 0.000000 0.000000 
-0.544320 0.573541 -2.037440 0.000000 0.000000 0.000000 
-0.583615 0.650982 -1.969180 0.000000 0.000000 0.000000 
-0.602124 0.591870 -2.010480 0.000000 0.000000 0.000000 
-0.535585 0.580113 -1.976170 0.000000 0.000000 0.000000 
-0.775645 0.607478 -1.744470 0.000000 0.000000 0.000000 
-0.798642 0.586724 -1.729120 0.000000 0.000000 0.000000 
-0.596245 0.639238 -2.000960 0.000000 0.000000 0.000000 
-0.538484 0.636691 -2.002530 0.000000 0.000000 0.000000 
-0.594280 0.592111 -1.990250 0.000000 0.000000 0.000000 
-0.734863 0.548522 -2.073990 0.000000 0.000000 0.000000 
-0.827802 0.640688 -2.060230 0.000000 0.000000 0.000000 
-0.834035 0.494583 -2.093160 0.000000 0.000000 0.000000 
-0.231951 0.171547 -1.172810 0.000000 0.000000 0.000000 
-0.227452 0.185310 -1.207070 0.000000 0.000000 0.000000 
-0.560511 0.440265 -2.013630 0.000000 0.000000 0.000000 
-0.779210 0.563559 -1.733780 0.000000 0.000000 0.000000 
-0.529044 0.515321 -2.032390 0.000000 0.000000 0.000000 
-0.775928 0.607210 -1.743870 0.000000 0.000000 0.000000 
-0.773732 0.598076 -1.755960 0.000000 0.000000 0.000000 
-0.529587 0.726525 -1.790350 0.000000 0.000000 0.000000 
-0.760322 0.572739 -2.069050 0.000000 0.000000 0.000000 
-0.971471 0.673454 -1.752590 0.000000 0.000000 0.000000 
-0.570010 0.524753 -2.022420 0.000000 0.000000 0.000000 
-0.525014 0.520171 -2.052670 0.000000 0.000000 0.000000 
-0.532117 0.740151 -1.767710 0.000000 0.000000 0.000000 
-0.681378 0.687763 -1.719580 0.000000 0.000000 0.000000 
-0.237670 0.147808 -0.920858 0.000000 0.000000 0.000000 
-0.239896 0.157403 -0.933875 0.000000 0.000000 0.000000 
-0.196263 0.531247 -0.898622 0.000000 0.000000 0.000000 
-0.260848 0.497579 -1.000240 0.000000 0.000000 0.000000 
-0.968714 0.691544 -1.605610 0.000000 0.000000 0.000000 
-0.985230 0.616481 -1.933360 0.000000 0.000000 0.000000 
-0.991800 0.454402 -1.967880 0.000000 0.000000 0.000000 
-0.851694 0.611202 -1.750810 0.000000 0.000000 0.000000 
-0.959175 0.597291 -1.705910 0.000000 0.000000 0.000000 
-0.713692 0.714908 -1.695880 0.000000 0.000000 0.000000 
-0.447880 0.643986 -1.337240 0.000000 0.000000 0.000000 
-0.409190 0.640027 -1.584570 0.000000 0.000000 0.000000 
-0.227749 0.118474 -0.525357 0.000000 0.000000 0.000000 
-0.273324 0.207631 -0.384110 0.000000 0.000000 0.000000 
-0.260313 0.362198 -0.473657 0.000000 0.000000 0.000000 
-0.269777 0.105803 -0.394657 0.000000 0.000000 0.000000 
-0.307329 0.492109 -1.202650 0.000000 0.000000 0.000000 
-0.327090 0.433542 -0.940947 0.000000 0.000000 0.000000 
-0.292678 0.523252 -1.210630 0.000000 0.000000 0.000000 
-0.189356 0.405127 -1.250910 0.000000 0.000000 0.000000 
-0.236213 0.152651 -0.816580 0.000000 0.000000 0.000000 
-0.238353 0.156716 -0.934097 0.000000 0.000000 0.000000 
-0.238121 0.156148 -0.933471 0.000000 0.000000 0.000000 
-0.221535 0.318640 -1.346310 0.000000 0.000000 0.000000 
-0.213901 0.282935 -1.339780 0.000000 0.000000 0.000000 
-0.192181 0.096636 -0.792106 0.000000 0.000000 0.000000 
-0.238302 0.155556 -0.932722 0.000000 0.000000 0.000000 
-0.219332 0.261364 -1.193390 0.000000 0.000000 0.000000 
-0.330997 0.253762 -0.160547 0.000000 0.000000 0.000000 
-0.266448 0.141381 -0.489198 0.000000 0.000000 0.000000 
-0.214493 0.261827 -1.196660 0.000000 0.000000 0.000000 
-0.272033 0.083467 -0.402891 0.000000 0.000000 0.000000 
-0.274458 0.064112 -0.429680 0.000000 0.000000 0.000000 
-0.228557 0.124565 -0.935173 0.000000 0.000000 0.000000 
-0.216766 0.221997 -1.081310 0.000000 0.000000 0.000000 
-0.227553 0.125938 -0.965248 0.000000 0.000000 0.000000 
-0.240375 0.154776 -0.930274 0.000000 0.000000 0.000000 
-0.259803 0.524538 -0.878763 0.000000 0.000000 0.000000 
-0.283914 0.514964 -0.874436 0.000000 0.000000 0.000000 
-0.212397 0.556569 -0.963358 0.000000 0.000000 0.000000 
-0.363662 0.521675 -0.866909 0.000000 0.000000 0.000000 
-0.377820 0.461073 -1.232540 0.000000 0.000000 0.000000 
-0.376919 0.542275 -1.215840 0.000000 0.000000 0.000000 
-0.340878 0.581305 -1.199670 0.000000 0.000000 0.000000 
-0.344907 0.579891 -1.198210 0.000000 0.000000 0.000000 
-0.292342 0.524466 -1.211350 0.000000 0.000000 0.000000 
-0.295819 0.540768 -0.883488 0.000000 0.000000 0.000000 
-0.363074 0.521607 -0.867226 0.000000 0.000000 0.000000 
-0.181060 0.239126 -1.125950 0.000000 0.000000 0.000000 
-0.293006 0.524175 -1.210640 0.000000 0.000000 0.000000 
-0.357835 0.409204 -0.921626 0.000000 0.000000 0.000000 
-0.353399 0.507487 -0.882689 0.000000 0.000000 0.000000 
-0.329017 0.464866 -0.905552 0.000000 0.000000 0.000000 
-0.221613 0.281601 -1.331790 0.000000 0.000000 0.000000 
-0.361095 0.425694 -0.905036 0.000000 0.000000 0.000000 
-0.405977 0.751157 -1.919250 0.000000 0.000000 0.000000 
-0.396115 0.670776 -1.938060 0.000000 0.000000 0.000000 
-0.658893 0.689977 -1.946150 0.000000 0.000000 0.000000 
-0.524537 0.670361 -1.945920 0.000000 0.000000 0.000000 
-0.527495 0.662071 -1.931200 0.000000 0.000000 0.000000 
-0.693803 0.588461 -2.062190 0.000000 0.000000 0.000000 
-0.763182 0.595376 -2.063400 0.000000 0.000000 0.000000 
-0.642313 0.605423 -2.047340 0.000000 0.000000 0.000000 
-0.129480 0.544998 -2.019710 0.000000 0.000000 0.000000 
-0.899040 0.410427 -2.116000 0.000000 0.000000 0.000000 
-0.704667 0.416074 -2.109450 0.000000 0.000000 0.000000 
-0.654157 0.737108 -1.932850 0.000000 0.000000 0.000000 
-0.654035 0.738829 -1.933830 0.000000 0.000000 0.000000 
-0.505131 0.640616 -2.026610 0.000000 0.000000 0.000000 
-0.860509 0.583815 -2.074410 0.000000 0.000000 0.000000 
-0.526161 0.661206 -1.941810 0.000000 0.000000 0.000000 
-0.575952 0.528692 -2.019640 0.000000 0.000000 0.000000 
-0.899212 0.507341 -2.090910 0.000000 0.000000 0.000000 
-0.180618 0.311019 -1.361080 0.000000 0.000000 0.000000 
-0.225578 0.316272 -1.346330 0.000000 0.000000 0.000000 
-0.198911 0.254832 -1.186510 0.000000 0.000000 0.000000 
-0.219201 0.315315 -1.348450 0.000000 0.000000 0.000000 
-0.217164 0.308605 -1.351050 0.000000 0.000000 0.000000 
-0.218912 0.319442 -1.347820 0.000000 0.000000 0.000000 
-0.203021 0.284631 -1.323470 0.000000 0.000000 0.000000 
-0.433115 0.540151 -1.420490 0.000000 0.000000 0.000000 
-0.194040 0.437910 -1.534670 0.000000 0.000000 0.000000 
-0.415169 0.606336 -1.207400 0.000000 0.000000 0.000000 
-0.385138 0.596472 -1.177990 0.000000 0.000000 0.000000 
-0.375138 0.622020 -1.310370 0.000000 0.000000 0.000000 
-0.753950 0.612928 -1.754870 0.000000 0.000000 0.000000 
-0.606933 0.648154 -1.966840 0.000000 0.000000 0.000000 
-0.842799 0.611557 -1.753460 0.000000 0.000000 0.000000 
-0.789690 0.599673 -1.734050 0.000000 0.000000 0.000000 
-0.798122 0.631212 -1.731350 0.000000 0.000000 0.000000 
-0.621789 0.621693 -2.025110 0.000000 0.000000 0.000000 
-0.760111 0.611158 -1.756970 0.000000 0.000000 0.000000 
-0.420902 0.499683 -1.427100 0.000000 0.000000 0.000000 
-0.416199 0.503933 -1.383280 0.000000 0.000000 0.000000 
-0.441408 0.525464 -1.374950 0.000000 0.000000 0.000000 
-0.919381 0.471600 -2.101790 0.000000 0.000000 0.000000 
-0.901536 0.411183 -2.114890 0.000000 0.000000 0.000000 
-0.916129 0.434411 -2.110930 0.000000 0.000000 0.000000 
-0.929097 0.343572 -1.929400 0.000000 0.000000 0.000000 
-0.585546 0.534274 -2.035030 0.000000 0.000000 0.000000 
-0.390236 0.529448 -2.046950 0.000000 0.000000 0.000000 
-0.618449 0.566947 -2.058880 0.000000 0.000000 0.000000 
-0.497444 0.587244 -1.991450 0.000000 0.000000 0.000000 
-0.528261 0.465550 -2.000810 0.000000 0.000000 0.000000 
-0.454884 0.472698 -1.987020 0.000000 0.000000 0.000000 
-1.012820 0.504148 -1.826840 0.000000 0.000000 0.000000 
-0.197363 0.257676 -1.197540 0.000000 0.000000 0.000000 
-0.235893 0.143414 -0.924126 0.000000 0.000000 0.000000 
-0.208470 0.276618 -1.286370 0.000000 0.000000 0.000000 
-0.188342 0.316432 -1.272910 0.000000 0.000000 0.000000 
-0.444957 0.380324 -2.014600 0.000000 0.000000 0.000000 
-0.763587 0.677021 -1.977060 0.000000 0.000000 0.000000 
-0.698938 0.463721 -2.014190 0.000000 0.000000 0.000000 
-0.513335 0.585012 -1.995850 0.000000 0.000000 0.000000 
-0.517569 0.634018 -1.961040 0.000000 0.000000 0.000000 
-0.649547 0.457449 -1.983450 0.000000 0.000000 0.000000 
-0.624633 0.537557 -2.065540 0.000000 0.000000 0.000000 
