-0.297639 -0.261889 1.111350 0.000000 0.000000 0.000000 
-0.474221 0.015918 1.152170 0.000000 0.000000 0.000000 
-0.076058 0.073988 0.900197 0.000000 0.000000 0.000000 
-0.246324 -0.024580 1.239580 0.000000 0.000000 0.000000 
-0.416729 0.019581 1.111680 0.000000 0.000000 0.000000 
-0.690053 -0.009613 1.205810 0.000000 0.000000 0.000000 
-0.836776 -0.080719 1.028670 0.000000 0.000000 0.000000 
-0.673444 -0.081184 1.039820 0.000000 0.000000 0.000000 
-0.578652 0.034757 1.052220 0.000000 0.000000 0.000000 
-0.679072 0.022954 1.098340 0.000000 0.000000 0.000000 
-0.675056 0.022016 1.095030 0.000000 0.000000 0.000000 
-0.669269 0.014047 1.092000 0.000000 0.000000 0.000000 
-0.706170 0.018690 1.067170 0.000000 0.000000 0.000000 
-0.725584 -0.063209 0.950210 0.000000 0.000000 0.000000 
-0.633526 0.031372 1.044200 0.000000 0.000000 0.000000 
-0.596926 -0.071382 1.047240 0.000000 0.000000 0.000000 
-0.777573 0.021286 1.149450 0.000000 0.000000 0.000000 
-0.250990 -0.065664 0.961663 0.000000 0.000000 0.000000 
-0.309761 -0.258331 1.106680 0.000000 0.000000 0.000000 
-1.096780 -0.242159 0.905300 0.000000 0.000000 0.000000 
-1.096560 -0.232806 0.893021 0.000000 0.000000 0.000000 
-0.943228 -0.042805 0.901096 0.000000 0.000000 0.000000 
-1.092470 -0.229130 0.903443 0.000000 0.000000 0.000000 
-1.080770 -0.170085 1.051360 0.000000 0.000000 0.000000 
-0.942917 -0.057353 0.976234 0.000000 0.000000 0.000000 
-0.243446 -0.000767 0.949832 0.000000 0.000000 0.000000 
-0.242716 -0.121644 0.869584 0.000000 0.000000 0.000000 
-0.389750 -0.286140 1.131900 0.000000 0.000000 0.000000 
-0.240523 0.015645 1.060120 0.000000 0.000000 0.000000 
-0.241857 -0.002318 0.951322 0.000000 0.000000 0.000000 
-0.637855 -0.123312 0.324606 0.000000 0.000000 0.000000 
-0.742733 0.055337 0.517398 0.000000 0.000000 0.000000 
-1.111430 -0.010762 0.347724 0.000000 0.000000 0.000000 
-0.717684 -0.128302 0.310445 0.000000 0.000000 0.000000 
-1.069010 -0.001941 0.413138 0.000000 0.000000 0.000000 
-0.587569 -0.148528 0.306101 0.000000 0.000000 0.000000 
-0.712139 0.039307 0.350010 0.000000 0.000000 0.000000 
-0.903121 0.020789 0.643832 0.000000 0.000000 0.000000 
-1.100870 0.009758 0.349084 0.000000 0.000000 0.000000 
-0.892075 -0.019447 0.791652 0.000000 0.000000 0.000000 
-0.734676 0.024496 0.602338 0.000000 0.000000 0.000000 
-0.264953 -0.155921 0.697850 0.000000 0.000000 0.000000 
-0.251534 0.048415 0.758325 0.000000 0.000000 0.000000 
-0.269111 0.103266 0.728758 0.000000 0.000000 0.000000 
-0.242322 -0.198504 1.175480 0.000000 0.000000 0.000000 
-0.258393 -0.067598 0.963320 0.000000 0.000000 0.000000 
-0.328433 -0.012625 1.188400 0.000000 0.000000 0.000000 
-0.241910 -0.189144 0.988266 0.000000 0.000000 0.000000 
-0.353829 -0.087760 1.154070 0.000000 0.000000 0.000000 
-0.236630 -0.206389 1.002140 0.000000 0.000000 0.000000 
-0.374260 -0.045936 1.161090 0.000000 0.000000 0.000000 
-0.243381 -0.030252 1.038120 0.000000 0.000000 0.000000 
-0.239601 -0.194010 0.998267 0.000000 0.000000 0.000000 
-0.346130 -0.262920 1.103780 0.000000 0.000000 0.000000 
-0.361341 -0.134916 1.134360 0.000000 0.000000 0.000000 
-0.360725 0.003913 1.155180 0.000000 0.000000 0.000000 
-0.382235 -0.313946 1.125820 0.000000 0.000000 0.000000 
-0.251241 -0.063968 1.043690 0.000000 0.000000 0.000000 
-0.264080 -0.274261 1.119510 0.000000 0.000000 0.000000 
-0.391997 -0.312648 1.123460 0.000000 0.000000 0.000000 
-0.352211 -0.264587 1.107580 0.000000 0.000000 0.000000 
-0.368092 -0.277043 1.129020 0.000000 0.000000 0.000000 
-1.095690 -0.210084 1.043220 0.000000 0.000000 0.000000 
-0.758206 0.009895 1.180750 0.000000 0.000000 0.000000 
-0.570015 -0.145893 1.172520 0.000000 0.000000 0.000000 
-0.236102 -0.189624 0.729990 0.000000 0.000000 0.000000 
-0.267144 0.098424 0.746659 0.000000 0.000000 0.000000 
-0.240626 -0.215416 1.001900 0.000000 0.000000 0.000000 
-0.241534 -0.189447 0.988948 0.000000 0.000000 0.000000 
-0.238977 -0.244842 1.141890 0.000000 0.000000 0.000000 
-0.112027 0.029797 1.070070 0.000000 0.000000 0.000000 
-0.116742 0.071004 0.912039 0.000000 0.000000 0.000000 
-0.071845 0.086573 0.857091 0.000000 0.000000 0.000000 
-0.239931 -0.075133 1.031270 0.000000 0.000000 0.000000 
-0.243989 -0.070148 1.227220 0.000000 0.000000 0.000000 
-0.241790 -0.223261 0.994800 0.000000 0.000000 0.000000 
-0.376058 -0.082910 1.157220 0.000000 0.000000 0.000000 
-0.370274 -0.140566 1.131260 0.000000 0.000000 0.000000 
-0.370903 -0.140308 1.131250 0.000000 0.000000 0.000000 
-0.372112 -0.203567 1.116240 0.000000 0.000000 0.000000 
-0.371206 -0.091131 1.144330 0.000000 0.000000 0.000000 
-0.224972 -0.069296 1.027780 0.000000 0.000000 0.000000 
-0.242334 -0.065575 1.039700 0.000000 0.000000 0.000000 
-0.372323 -0.164286 1.125870 0.000000 0.000000 0.000000 
-0.240982 -0.066893 1.038640 0.000000 0.000000 0.000000 
-0.993119 -0.000842 1.218380 0.000000 0.000000 0.000000 
-0.768385 -0.006193 1.210360 0.000000 0.000000 0.000000 
-0.482719 -0.005414 1.202590 0.000000 0.000000 0.000000 
-0.513875 0.011740 1.157970 0.000000 0.000000 0.000000 
-0.634621 -0.079203 1.042710 0.000000 0.000000 0.000000 
-0.683143 0.026084 1.095750 0.000000 0.000000 0.000000 
-0.470021 0.007569 1.175330 0.000000 0.000000 0.000000 
-0.473621 0.008706 1.178130 0.000000 0.000000 0.000000 
-0.661954 0.032198 1.086120 0.000000 0.000000 0.000000 
-0.491258 0.015135 1.136820 0.000000 0.000000 0.000000 
-0.233465 -0.160320 0.903230 0.000000 0.000000 0.000000 
-0.249702 -0.206996 0.930921 0.000000 0.000000 0.000000 
-0.243689 -0.158879 0.910116 0.000000 0.000000 0.000000 
-0.362309 -0.122314 1.136410 0.000000 0.000000 0.000000 
-0.343250 -0.134967 1.135730 0.000000 0.000000 0.000000 
-0.376753 -0.050440 1.163820 0.000000 0.000000 0.000000 
-0.379422 -0.051677 1.182560 0.000000 0.000000 0.000000 
-0.242620 -0.176137 0.858069 0.000000 0.000000 0.000000 
-0.243217 -0.186952 0.979208 0.000000 0.000000 0.000000 
-0.621589 -0.071526 1.038490 0.000000 0.000000 0.000000 
-0.830173 -0.073596 1.007660 0.000000 0.000000 0.000000 
-0.633613 -0.078948 1.042790 0.000000 0.000000 0.000000 
-0.618818 -0.077580 1.019690 0.000000 0.000000 0.000000 
-0.913449 0.011505 0.699788 0.000000 0.000000 0.000000 
-0.946411 0.013490 0.691033 0.000000 0.000000 0.000000 
-1.097480 -0.086885 0.662358 0.000000 0.000000 0.000000 
-0.935142 0.033221 0.587395 0.000000 0.000000 0.000000 
-1.097520 -0.072684 0.661300 0.000000 0.000000 0.000000 
-0.244203 -0.239497 1.157430 0.000000 0.000000 0.000000 
-0.351402 0.016077 0.681344 0.000000 0.000000 0.000000 
-0.242854 -0.054753 1.025200 0.000000 0.000000 0.000000 
-0.243202 -0.085774 0.936689 0.000000 0.000000 0.000000 
-0.241083 0.001874 1.142970 0.000000 0.000000 0.000000 
-0.241689 0.004015 1.141070 0.000000 0.000000 0.000000 
-0.238492 0.013899 1.111800 0.000000 0.000000 0.000000 
-0.159869 0.001404 1.192030 0.000000 0.000000 0.000000 
0.015055 -0.010064 1.242010 0.000000 0.000000 0.000000 
-0.251773 -0.017105 1.184540 0.000000 0.000000 0.000000 
-1.096510 -0.183731 1.004300 0.000000 0.000000 0.000000 
-0.627411 0.023373 1.095040 0.000000 0.000000 0.000000 
-0.249139 -0.016745 1.183400 0.000000 0.000000 0.000000 
-0.248495 0.026630 1.034760 0.000000 0.000000 0.000000 
-0.237019 0.024679 1.060490 0.000000 0.000000 0.000000 
-0.242379 -0.035381 0.856897 0.000000 0.000000 0.000000 
-0.246046 0.000815 1.009990 0.000000 0.000000 0.000000 
-0.243250 -0.059090 0.883576 0.000000 0.000000 0.000000 
-0.241079 -0.035126 0.855965 0.000000 0.000000 0.000000 
-0.856524 0.040461 0.551579 0.000000 0.000000 0.000000 
-1.099070 -0.074095 0.550621 0.000000 0.000000 0.000000 
-0.913322 0.034875 0.589798 0.000000 0.000000 0.000000 
-0.945075 0.013041 0.691604 0.000000 0.000000 0.000000 
-1.098380 -0.076786 0.550042 0.000000 0.000000 0.000000 
-1.098150 -0.105397 0.552886 0.000000 0.000000 0.000000 
-0.863031 0.039847 0.563770 0.000000 0.000000 0.000000 
-1.098440 -0.037791 0.466289 0.000000 0.000000 0.000000 
-0.814512 0.011369 0.666685 0.000000 0.000000 0.000000 
-0.895714 0.013656 0.670273 0.000000 0.000000 0.000000 
-1.138090 -0.061755 0.695074 0.000000 0.000000 0.000000 
-0.902464 0.004730 0.712571 0.000000 0.000000 0.000000 
0.114192 0.086838 0.854435 0.000000 0.000000 0.000000 
0.019922 0.074911 0.897360 0.000000 0.000000 0.000000 
-0.240304 -0.091546 0.861814 0.000000 0.000000 0.000000 
-0.223789 -0.009235 1.104040 0.000000 0.000000 0.000000 
0.102796 0.089621 0.844202 0.000000 0.000000 0.000000 
-0.291815 -0.265135 1.113050 0.000000 0.000000 0.000000 
-0.239815 -0.224158 0.992574 0.000000 0.000000 0.000000 
-0.243777 -0.217120 1.188020 0.000000 0.000000 0.000000 
-0.293742 -0.266058 1.116230 0.000000 0.000000 0.000000 
-0.245164 -0.192278 1.147470 0.000000 0.000000 0.000000 
-1.099050 -0.020605 0.499402 0.000000 0.000000 0.000000 
-0.943809 -0.021383 0.813893 0.000000 0.000000 0.000000 
-1.098180 -0.068442 0.699555 0.000000 0.000000 0.000000 
-0.824587 0.047433 0.531204 0.000000 0.000000 0.000000 
-0.796613 0.032493 0.584058 0.000000 0.000000 0.000000 
-0.944980 0.016731 0.667285 0.000000 0.000000 0.000000 
-0.914273 0.025561 0.629786 0.000000 0.000000 0.000000 
-0.847415 0.039029 0.560890 0.000000 0.000000 0.000000 
-0.917873 0.018323 0.663448 0.000000 0.000000 0.000000 
-0.918240 0.030154 0.629988 0.000000 0.000000 0.000000 
-0.916629 0.013172 0.701109 0.000000 0.000000 0.000000 
-1.095620 -0.084542 0.764774 0.000000 0.000000 0.000000 
-0.227919 -0.039595 0.986402 0.000000 0.000000 0.000000 
-0.243595 -0.044458 1.037050 0.000000 0.000000 0.000000 
-0.786352 0.018202 1.082640 0.000000 0.000000 0.000000 
-0.783343 0.013647 1.077560 0.000000 0.000000 0.000000 
-1.095380 -0.208375 1.097150 0.000000 0.000000 0.000000 
-0.767477 0.001611 1.222210 0.000000 0.000000 0.000000 
-0.118995 0.070241 0.924572 0.000000 0.000000 0.000000 
-1.160360 -0.174399 0.917792 0.000000 0.000000 0.000000 
-0.599257 0.030178 1.052710 0.000000 0.000000 0.000000 
-0.602994 0.030568 1.052050 0.000000 0.000000 0.000000 
-1.076460 -0.010636 1.209980 0.000000 0.000000 0.000000 
-1.095720 -0.214660 1.095420 0.000000 0.000000 0.000000 
-0.252879 -0.091029 1.164490 0.000000 0.000000 0.000000 
-1.086000 -0.304160 1.096330 0.000000 0.000000 0.000000 
-0.403861 0.013113 1.118370 0.000000 0.000000 0.000000 
-0.733065 0.042393 1.144110 0.000000 0.000000 0.000000 
-1.097330 -0.213896 1.095430 0.000000 0.000000 0.000000 
-0.245074 -0.098998 1.213490 0.000000 0.000000 0.000000 
-0.269134 -0.019224 1.129800 0.000000 0.000000 0.000000 
-0.286606 -0.265160 1.115930 0.000000 0.000000 0.000000 
-0.247210 0.018984 1.063320 0.000000 0.000000 0.000000 
-0.404164 -0.030576 1.171600 0.000000 0.000000 0.000000 
-0.680358 0.022439 1.060050 0.000000 0.000000 0.000000 
-0.633401 -0.082313 1.046000 0.000000 0.000000 0.000000 
-0.720173 -0.127775 0.317783 0.000000 0.000000 0.000000 
-0.631567 0.037303 0.352712 0.000000 0.000000 0.000000 
-0.636231 -0.122354 0.318169 0.000000 0.000000 0.000000 
-0.584617 0.019349 0.345461 0.000000 0.000000 0.000000 
-0.879811 -0.020413 0.318876 0.000000 0.000000 0.000000 
-0.561954 0.084249 0.359762 0.000000 0.000000 0.000000 
-0.720730 -0.209671 0.373287 0.000000 0.000000 0.000000 
-0.773064 0.016456 0.620818 0.000000 0.000000 0.000000 
-0.728250 -0.008378 0.341915 0.000000 0.000000 0.000000 
-0.742542 0.054659 0.501070 0.000000 0.000000 0.000000 
-0.855867 0.034060 0.577022 0.000000 0.000000 0.000000 
-0.287841 -0.084323 1.172490 0.000000 0.000000 0.000000 
-0.243515 -0.187373 0.979908 0.000000 0.000000 0.000000 
-1.088430 -0.230237 0.929182 0.000000 0.000000 0.000000 
-0.527245 0.024083 1.109220 0.000000 0.000000 0.000000 
-0.426358 0.024110 1.098110 0.000000 0.000000 0.000000 
-0.470064 0.008501 1.174810 0.000000 0.000000 0.000000 
-0.716255 -0.088235 1.056070 0.000000 0.000000 0.000000 
-0.161978 -0.006382 1.213180 0.000000 0.000000 0.000000 
-0.243028 -0.260815 1.131640 0.000000 0.000000 0.000000 
-0.242920 -0.217062 1.184570 0.000000 0.000000 0.000000 
-0.236980 -0.009934 1.191470 0.000000 0.000000 0.000000 
-0.960803 0.019908 0.684645 0.000000 0.000000 0.000000 
-0.881713 -0.006145 0.725407 0.000000 0.000000 0.000000 
-1.093850 -0.064870 0.688569 0.000000 0.000000 0.000000 
-1.095190 -0.061679 0.656847 0.000000 0.000000 0.000000 
-1.092160 -0.009581 0.471537 0.000000 0.000000 0.000000 
-0.868477 -0.019632 0.752782 0.000000 0.000000 0.000000 
-1.094970 -0.110381 0.533150 0.000000 0.000000 0.000000 
-1.101290 -0.020695 0.355723 0.000000 0.000000 0.000000 
-1.096590 -0.059496 0.448270 0.000000 0.000000 0.000000 
-1.098490 -0.085491 0.557521 0.000000 0.000000 0.000000 
-0.873315 0.023139 0.333249 0.000000 0.000000 0.000000 
-1.098010 -0.057542 0.447445 0.000000 0.000000 0.000000 
-1.094740 -0.075009 0.362945 0.000000 0.000000 0.000000 
-1.100490 -0.103617 0.371919 0.000000 0.000000 0.000000 
-1.098210 -0.046743 0.546979 0.000000 0.000000 0.000000 
0.019514 0.166516 0.534266 0.000000 0.000000 0.000000 
-0.121017 0.118004 0.733597 0.000000 0.000000 0.000000 
-0.256429 -0.089732 1.166880 0.000000 0.000000 0.000000 
-0.219393 0.002327 1.171790 0.000000 0.000000 0.000000 
-0.263567 -0.067872 1.175940 0.000000 0.000000 0.000000 
-0.249305 -0.212414 0.919621 0.000000 0.000000 0.000000 
-1.093420 -0.241067 0.929255 0.000000 0.000000 0.000000 
-1.096190 -0.104769 0.744458 0.000000 0.000000 0.000000 
-1.093210 -0.064656 0.686903 0.000000 0.000000 0.000000 
-1.103390 -0.083551 0.791547 0.000000 0.000000 0.000000 
-1.095190 -0.135350 0.725913 0.000000 0.000000 0.000000 
-1.096730 -0.163018 0.742901 0.000000 0.000000 0.000000 
-1.097220 -0.227421 0.743969 0.000000 0.000000 0.000000 
-0.542247 -0.025652 0.975306 0.000000 0.000000 0.000000 
-0.627785 -0.061693 0.951225 0.000000 0.000000 0.000000 
-1.103400 -0.407654 1.058120 0.000000 0.000000 0.000000 
-0.349568 -0.089980 1.150100 0.000000 0.000000 0.000000 
-0.347629 -0.144517 1.118380 0.000000 0.000000 0.000000 
-0.302080 -0.254249 1.111070 0.000000 0.000000 0.000000 
-0.393286 -0.050704 1.190840 0.000000 0.000000 0.000000 
-0.335498 -0.015388 1.142850 0.000000 0.000000 0.000000 
-0.240029 -0.018316 1.233240 0.000000 0.000000 0.000000 
-0.264078 -0.274055 1.118440 0.000000 0.000000 0.000000 
-0.563125 0.035083 1.085750 0.000000 0.000000 0.000000 
-0.855818 -0.143095 1.178390 0.000000 0.000000 0.000000 
-0.799109 -0.220527 1.159700 0.000000 0.000000 0.000000 
-0.550551 -0.077144 1.032800 0.000000 0.000000 0.000000 
-0.629808 -0.061754 0.950609 0.000000 0.000000 0.000000 
-0.537197 -0.058203 0.980819 0.000000 0.000000 0.000000 
-0.629915 -0.061887 0.950124 0.000000 0.000000 0.000000 
-0.542040 -0.054929 0.973957 0.000000 0.000000 0.000000 
-0.250750 -0.017060 1.184340 0.000000 0.000000 0.000000 
-0.243711 -0.054647 1.009470 0.000000 0.000000 0.000000 
-0.247867 -0.043643 0.969513 0.000000 0.000000 0.000000 
-0.244003 -0.231506 1.186480 0.000000 0.000000 0.000000 
-0.244160 0.002534 0.953627 0.000000 0.000000 0.000000 
-0.248533 0.028052 1.011050 0.000000 0.000000 0.000000 
-0.267928 -0.143844 0.969106 0.000000 0.000000 0.000000 
-0.157468 0.075320 0.893585 0.000000 0.000000 0.000000 
0.096566 0.084218 0.863633 0.000000 0.000000 0.000000 
-0.244401 0.045896 0.955188 0.000000 0.000000 0.000000 
-0.263003 -0.218828 0.915542 0.000000 0.000000 0.000000 
-1.097660 -0.131036 0.652841 0.000000 0.000000 0.000000 
-1.095210 -0.064141 0.649235 0.000000 0.000000 0.000000 
-0.237244 -0.015647 1.247280 0.000000 0.000000 0.000000 
-0.252910 0.012464 1.113410 0.000000 0.000000 0.000000 
-0.243070 -0.113727 0.927435 0.000000 0.000000 0.000000 
-0.276961 -0.104670 1.070440 0.000000 0.000000 0.000000 
-0.300652 0.003248 1.164170 0.000000 0.000000 0.000000 
-0.240781 -0.189502 0.989385 0.000000 0.000000 0.000000 
-0.238113 -0.064492 1.035780 0.000000 0.000000 0.000000 
0.067288 0.070172 0.915950 0.000000 0.000000 0.000000 
-0.243530 -0.165454 0.904381 0.000000 0.000000 0.000000 
-0.245609 -0.046559 0.940573 0.000000 0.000000 0.000000 
-0.245304 -0.033483 1.037550 0.000000 0.000000 0.000000 
-0.247171 -0.096974 0.933715 0.000000 0.000000 0.000000 
-0.242308 -0.265188 1.138040 0.000000 0.000000 0.000000 
-0.207024 0.041739 1.007240 0.000000 0.000000 0.000000 
-0.191561 0.017475 1.112580 0.000000 0.000000 0.000000 
-0.065505 -0.014565 1.251990 0.000000 0.000000 0.000000 
0.064376 -0.013485 1.256980 0.000000 0.000000 0.000000 
-1.093290 -0.178138 1.112370 0.000000 0.000000 0.000000 
-0.536085 0.030530 1.080390 0.000000 0.000000 0.000000 
-0.552823 0.031432 1.068140 0.000000 0.000000 0.000000 
-0.721835 -0.080895 1.044950 0.000000 0.000000 0.000000 
-0.514532 0.011748 1.158410 0.000000 0.000000 0.000000 
-1.007690 -0.013030 1.216450 0.000000 0.000000 0.000000 
-0.506036 0.004937 1.190250 0.000000 0.000000 0.000000 
-0.618121 0.045901 0.988716 0.000000 0.000000 0.000000 
-0.615581 -0.086374 1.037900 0.000000 0.000000 0.000000 
-0.645583 -0.016022 1.207280 0.000000 0.000000 0.000000 
-0.606444 -0.007507 1.204100 0.000000 0.000000 0.000000 
-0.242185 -0.150902 0.909838 0.000000 0.000000 0.000000 
-0.241472 -0.155535 0.908145 0.000000 0.000000 0.000000 
-0.784043 0.028122 0.608364 0.000000 0.000000 0.000000 
-0.898628 -0.016827 0.789578 0.000000 0.000000 0.000000 
-1.093980 -0.145329 1.015300 0.000000 0.000000 0.000000 
-0.243060 -0.265018 1.137080 0.000000 0.000000 0.000000 
-0.244637 -0.173464 0.826264 0.000000 0.000000 0.000000 
-0.244437 -0.150788 0.911014 0.000000 0.000000 0.000000 
-0.239083 -0.223622 0.992159 0.000000 0.000000 0.000000 
-0.240376 -0.230814 1.181280 0.000000 0.000000 0.000000 
-0.244381 -0.054308 1.037240 0.000000 0.000000 0.000000 
-1.095490 -0.139051 0.927391 0.000000 0.000000 0.000000 
-0.933891 0.027779 0.609039 0.000000 0.000000 0.000000 
-0.611826 -0.270362 1.141720 0.000000 0.000000 0.000000 
-0.244678 -0.138619 1.159730 0.000000 0.000000 0.000000 
-0.223969 -0.014700 1.245650 0.000000 0.000000 0.000000 
-0.245424 -0.072693 1.223340 0.000000 0.000000 0.000000 
-0.372625 -0.119337 1.137580 0.000000 0.000000 0.000000 
-0.255978 -0.007077 1.181290 0.000000 0.000000 0.000000 
-0.392418 -0.285989 1.134130 0.000000 0.000000 0.000000 
-0.338537 -0.263732 1.118000 0.000000 0.000000 0.000000 
-0.237827 0.011395 1.124920 0.000000 0.000000 0.000000 
-0.325563 -0.014249 1.186910 0.000000 0.000000 0.000000 
-0.284632 -0.084462 1.170100 0.000000 0.000000 0.000000 
-0.065127 -0.014135 1.253200 0.000000 0.000000 0.000000 
-0.289890 -0.008991 1.189380 0.000000 0.000000 0.000000 
-0.905920 0.024503 0.630901 0.000000 0.000000 0.000000 
-0.798129 0.033728 0.584696 0.000000 0.000000 0.000000 
-1.103360 -0.011762 0.476099 0.000000 0.000000 0.000000 
-1.096040 -0.093470 0.864219 0.000000 0.000000 0.000000 
-1.099300 -0.020338 0.505514 0.000000 0.000000 0.000000 
-0.903370 0.002089 0.724753 0.000000 0.000000 0.000000 
-1.089620 -0.130115 0.928464 0.000000 0.000000 0.000000 
-0.254542 -0.048671 1.176070 0.000000 0.000000 0.000000 
-0.240607 -0.260563 1.128790 0.000000 0.000000 0.000000 
-1.107700 -0.249648 0.941058 0.000000 0.000000 0.000000 
-1.098700 -0.276477 1.040860 0.000000 0.000000 0.000000 
-1.095610 -0.229323 1.086990 0.000000 0.000000 0.000000 
-1.094540 -0.115112 0.922684 0.000000 0.000000 0.000000 
-1.095630 -0.196343 0.944608 0.000000 0.000000 0.000000 
-0.242973 -0.186322 0.977660 0.000000 0.000000 0.000000 
0.063359 -0.014389 1.256360 0.000000 0.000000 0.000000 
-0.570125 -0.074203 1.042040 0.000000 0.000000 0.000000 
-0.622340 0.022022 1.095500 0.000000 0.000000 0.000000 
-0.278851 0.036013 0.592411 0.000000 0.000000 0.000000 
-0.586023 0.015880 0.346914 0.000000 0.000000 0.000000 
-0.731574 0.025595 1.068480 0.000000 0.000000 0.000000 
-0.367982 -0.048878 1.158470 0.000000 0.000000 0.000000 
-0.672272 0.006343 1.051140 0.000000 0.000000 0.000000 
-0.284234 0.080149 0.419204 0.000000 0.000000 0.000000 
-0.409159 0.140564 0.373698 0.000000 0.000000 0.000000 
-0.407300 -0.176875 0.303716 0.000000 0.000000 0.000000 
-0.326724 -0.071663 0.336646 0.000000 0.000000 0.000000 
-0.246704 -0.024928 1.239560 0.000000 0.000000 0.000000 
-0.242377 -0.221439 1.183130 0.000000 0.000000 0.000000 
-0.245713 -0.035326 1.234440 0.000000 0.000000 0.000000 
-0.360221 0.011512 1.131560 0.000000 0.000000 0.000000 
-0.256007 -0.075270 0.965210 0.000000 0.000000 0.000000 
-0.249826 -0.037849 1.178960 0.000000 0.000000 0.000000 
-0.261859 -0.036833 1.180080 0.000000 0.000000 0.000000 
-0.367998 -0.187432 1.118350 0.000000 0.000000 0.000000 
-0.372534 -0.166245 1.125710 0.000000 0.000000 0.000000 
-0.360306 0.004372 1.155480 0.000000 0.000000 0.000000 
-0.372169 -0.192105 1.119100 0.000000 0.000000 0.000000 
-0.361947 -0.119390 1.138330 0.000000 0.000000 0.000000 
-0.246550 -0.081486 1.230330 0.000000 0.000000 0.000000 
-0.312533 0.003987 1.158870 0.000000 0.000000 0.000000 
-0.360287 0.060964 0.537361 0.000000 0.000000 0.000000 
-0.283814 0.039839 0.570905 0.000000 0.000000 0.000000 
-0.267657 0.025540 0.608024 0.000000 0.000000 0.000000 
-0.500965 0.164761 0.535599 0.000000 0.000000 0.000000 
-0.390653 -0.015042 1.233710 0.000000 0.000000 0.000000 
-0.404492 -0.015964 1.244590 0.000000 0.000000 0.000000 
-0.320536 -0.266623 1.150530 0.000000 0.000000 0.000000 
-0.117607 0.036447 1.050130 0.000000 0.000000 0.000000 
-0.244301 -0.045780 0.892171 0.000000 0.000000 0.000000 
-0.243152 0.017758 0.902919 0.000000 0.000000 0.000000 
-0.236282 0.024651 1.062820 0.000000 0.000000 0.000000 
-0.243135 -0.059556 0.883927 0.000000 0.000000 0.000000 
-0.244391 0.029065 0.959648 0.000000 0.000000 0.000000 
-0.256740 -0.082038 1.032770 0.000000 0.000000 0.000000 
-0.579095 -0.156930 1.208100 0.000000 0.000000 0.000000 
-0.353738 -0.296653 1.117890 0.000000 0.000000 0.000000 
-0.502242 -0.062890 0.955665 0.000000 0.000000 0.000000 
-0.389421 -0.330176 1.162070 0.000000 0.000000 0.000000 
-0.494733 -0.035320 1.228180 0.000000 0.000000 0.000000 
-0.497308 -0.036552 1.240620 0.000000 0.000000 0.000000 
-0.573942 -0.164159 1.203840 0.000000 0.000000 0.000000 
-0.350766 -0.141249 1.171960 0.000000 0.000000 0.000000 
-0.354069 -0.270729 1.131550 0.000000 0.000000 0.000000 
-0.899082 -0.297881 1.180280 0.000000 0.000000 0.000000 
-0.373414 -0.125478 1.189620 0.000000 0.000000 0.000000 
-0.381562 -0.014622 1.208980 0.000000 0.000000 0.000000 
-0.888794 -0.295003 1.182350 0.000000 0.000000 0.000000 
-0.901607 -0.219412 1.198770 0.000000 0.000000 0.000000 
-0.382955 -0.204750 1.169400 0.000000 0.000000 0.000000 
-0.380344 -0.212119 1.173690 0.000000 0.000000 0.000000 
-0.580655 -0.163503 1.203450 0.000000 0.000000 0.000000 
-0.258836 -0.314349 1.144930 0.000000 0.000000 0.000000 
-0.348264 -0.272652 1.136580 0.000000 0.000000 0.000000 
-0.245517 -0.221838 0.841778 0.000000 0.000000 0.000000 
-0.183834 -0.225337 0.872774 0.000000 0.000000 0.000000 
-0.285133 -0.335604 1.176230 0.000000 0.000000 0.000000 
-0.401901 -0.292198 0.928124 0.000000 0.000000 0.000000 
-0.401621 -0.292831 0.926857 0.000000 0.000000 0.000000 
-0.261153 -0.071310 0.718405 0.000000 0.000000 0.000000 
-0.263100 -0.151863 0.661201 0.000000 0.000000 0.000000 
-0.351454 -0.281448 1.155000 0.000000 0.000000 0.000000 
-0.380002 -0.230501 1.174070 0.000000 0.000000 0.000000 
-0.344604 -0.200434 0.644905 0.000000 0.000000 0.000000 
-0.417818 -0.343599 0.863020 0.000000 0.000000 0.000000 
-0.250650 -0.215233 0.688504 0.000000 0.000000 0.000000 
-0.373152 -0.276656 0.925484 0.000000 0.000000 0.000000 
-0.256074 -0.321617 1.144550 0.000000 0.000000 0.000000 
-0.284970 -0.298467 1.152490 0.000000 0.000000 0.000000 
-0.680092 -0.221712 1.192130 0.000000 0.000000 0.000000 
-0.261750 -0.290990 1.020610 0.000000 0.000000 0.000000 
-0.262911 -0.131363 0.705184 0.000000 0.000000 0.000000 
-0.233659 -0.202526 0.676821 0.000000 0.000000 0.000000 
-0.354992 -0.231745 0.721980 0.000000 0.000000 0.000000 
-0.412081 -0.358077 0.907426 0.000000 0.000000 0.000000 
-0.257623 -0.222535 0.962191 0.000000 0.000000 0.000000 
-0.319852 -0.245385 0.827459 0.000000 0.000000 0.000000 
-0.257706 -0.178517 1.011470 0.000000 0.000000 0.000000 
-0.574432 -0.166420 1.203160 0.000000 0.000000 0.000000 
-0.886856 -0.295289 1.162850 0.000000 0.000000 0.000000 
-0.589463 -0.152869 1.204290 0.000000 0.000000 0.000000 
-0.669236 -0.159445 1.215360 0.000000 0.000000 0.000000 
-0.453110 -0.346573 1.141950 0.000000 0.000000 0.000000 
-0.437165 -0.175457 1.198730 0.000000 0.000000 0.000000 
-0.277584 -0.285607 1.161550 0.000000 0.000000 0.000000 
-0.249377 -0.246711 0.834411 0.000000 0.000000 0.000000 
-0.440649 -0.341655 1.127260 0.000000 0.000000 0.000000 
-0.248392 -0.244072 0.808951 0.000000 0.000000 0.000000 
-0.250860 -0.221611 0.713904 0.000000 0.000000 0.000000 
-0.233559 -0.199553 0.749675 0.000000 0.000000 0.000000 
-0.251002 -0.096525 0.751845 0.000000 0.000000 0.000000 
-0.283161 -0.232608 0.794384 0.000000 0.000000 0.000000 
-0.324209 -0.175671 0.848251 0.000000 0.000000 0.000000 
-0.347277 -0.308509 1.044100 0.000000 0.000000 0.000000 
-0.340841 -0.310927 1.050870 0.000000 0.000000 0.000000 
-0.727254 -0.092818 1.062010 0.000000 0.000000 0.000000 
-0.381735 -0.014159 1.222990 0.000000 0.000000 0.000000 
-0.369789 -0.126281 1.174140 0.000000 0.000000 0.000000 
-0.665201 -0.150959 1.193070 0.000000 0.000000 0.000000 
-0.893506 -0.153953 1.213800 0.000000 0.000000 0.000000 
-0.251555 -0.085276 1.039040 0.000000 0.000000 0.000000 
-0.257576 -0.304285 1.051730 0.000000 0.000000 0.000000 
-0.267560 -0.288637 1.013770 0.000000 0.000000 0.000000 
-0.377152 -0.277312 0.925600 0.000000 0.000000 0.000000 
-0.310059 -0.098057 1.196000 0.000000 0.000000 0.000000 
-0.289879 0.025811 0.877882 0.000000 0.000000 0.000000 
-0.260705 -0.048351 0.727739 0.000000 0.000000 0.000000 
-0.315315 -0.246462 0.827098 0.000000 0.000000 0.000000 
-0.270601 -0.301182 1.157460 0.000000 0.000000 0.000000 
-0.417592 -0.345365 0.865644 0.000000 0.000000 0.000000 
-0.177420 -0.227161 0.720797 0.000000 0.000000 0.000000 
-0.360730 -0.236285 0.738315 0.000000 0.000000 0.000000 
-0.262772 -0.318626 1.133130 0.000000 0.000000 0.000000 
-0.315778 -0.259336 0.924964 0.000000 0.000000 0.000000 
-0.260332 -0.291459 1.017880 0.000000 0.000000 0.000000 
-0.146811 -0.226522 1.041590 0.000000 0.000000 0.000000 
-0.268952 -0.238733 1.021250 0.000000 0.000000 0.000000 
-0.328647 -0.229147 0.922499 0.000000 0.000000 0.000000 
-0.274545 -0.307178 1.090160 0.000000 0.000000 0.000000 
-0.529795 -0.037629 0.856142 0.000000 0.000000 0.000000 
-0.264585 -0.031716 0.729595 0.000000 0.000000 0.000000 
-0.384485 -0.100623 1.185850 0.000000 0.000000 0.000000 
-0.278837 -0.280423 1.155160 0.000000 0.000000 0.000000 
-0.817938 -0.093499 1.055230 0.000000 0.000000 0.000000 
-0.212024 -0.194603 0.619157 0.000000 0.000000 0.000000 
-0.269770 -0.066661 0.759154 0.000000 0.000000 0.000000 
-0.382373 -0.151464 1.171000 0.000000 0.000000 0.000000 
-0.279373 -0.278933 1.154470 0.000000 0.000000 0.000000 
-0.315184 -0.006179 0.761213 0.000000 0.000000 0.000000 
-0.382946 -0.223129 1.169420 0.000000 0.000000 0.000000 
-0.429059 -0.341239 1.133430 0.000000 0.000000 0.000000 
-0.306752 -0.268305 1.152930 0.000000 0.000000 0.000000 
-0.248648 -0.246628 0.834602 0.000000 0.000000 0.000000 
-0.538075 -0.031470 0.825858 0.000000 0.000000 0.000000 
-0.379035 -0.225434 1.181520 0.000000 0.000000 0.000000 
-0.398148 -0.152435 1.176700 0.000000 0.000000 0.000000 
-0.246924 -0.166617 0.970535 0.000000 0.000000 0.000000 
-0.241554 -0.252699 1.173180 0.000000 0.000000 0.000000 
-0.360682 -0.281124 1.147160 0.000000 0.000000 0.000000 
-0.630728 -0.154546 1.214130 0.000000 0.000000 0.000000 
-0.883282 -0.292916 1.175540 0.000000 0.000000 0.000000 
-0.870960 -0.286932 1.163130 0.000000 0.000000 0.000000 
-0.703999 -0.050125 0.892119 0.000000 0.000000 0.000000 
-0.377968 -0.243612 1.159660 0.000000 0.000000 0.000000 
-0.399682 -0.326297 1.163450 0.000000 0.000000 0.000000 
-0.576003 -0.156582 1.223630 0.000000 0.000000 0.000000 
-0.812637 -0.218637 1.193150 0.000000 0.000000 0.000000 
-0.814464 -0.236063 1.190670 0.000000 0.000000 0.000000 
-0.816158 -0.142289 1.209950 0.000000 0.000000 0.000000 
-0.382943 -0.243824 1.153110 0.000000 0.000000 0.000000 
-0.382611 -0.290415 1.168760 0.000000 0.000000 0.000000 
-0.261625 -0.048742 0.727099 0.000000 0.000000 0.000000 
-0.485240 -0.322750 0.799524 0.000000 0.000000 0.000000 
-0.330546 -0.265134 1.141750 0.000000 0.000000 0.000000 
-0.284036 -0.331339 1.168710 0.000000 0.000000 0.000000 
-0.372617 -0.129374 1.169470 0.000000 0.000000 0.000000 
-0.265200 -0.048823 0.719151 0.000000 0.000000 0.000000 
-0.375141 -0.156456 1.162610 0.000000 0.000000 0.000000 
-0.429056 -0.339470 1.132370 0.000000 0.000000 0.000000 
-0.294455 -0.253846 0.826925 0.000000 0.000000 0.000000 
-0.386751 -0.253337 1.176040 0.000000 0.000000 0.000000 
-0.585356 -0.157369 1.205950 0.000000 0.000000 0.000000 
-1.127760 -0.182550 1.161910 0.000000 0.000000 0.000000 
-1.020470 -0.163078 1.059160 0.000000 0.000000 0.000000 
-0.382955 -0.194806 1.188310 0.000000 0.000000 0.000000 
-1.124180 -0.197726 1.142050 0.000000 0.000000 0.000000 
-1.082890 -0.310751 1.092190 0.000000 0.000000 0.000000 
-0.525092 -0.029017 0.868388 0.000000 0.000000 0.000000 
-0.548537 -0.012795 0.786039 0.000000 0.000000 0.000000 
-0.509983 -0.025336 0.843051 0.000000 0.000000 0.000000 
-0.511097 -0.068726 0.975016 0.000000 0.000000 0.000000 
-0.513268 -0.055848 0.925737 0.000000 0.000000 0.000000 
-1.163490 -0.192761 1.189290 0.000000 0.000000 0.000000 
-1.118550 -0.203358 1.142240 0.000000 0.000000 0.000000 
-0.899676 -0.208310 1.198740 0.000000 0.000000 0.000000 
-0.447507 -0.251736 1.182620 0.000000 0.000000 0.000000 
-0.697856 -0.152480 1.207770 0.000000 0.000000 0.000000 
-0.663006 -0.155540 1.207540 0.000000 0.000000 0.000000 
-0.466452 -0.350937 1.146870 0.000000 0.000000 0.000000 
-0.809523 -0.144932 1.207840 0.000000 0.000000 0.000000 
-0.507217 -0.066463 0.979474 0.000000 0.000000 0.000000 
-0.890128 -0.158047 1.212940 0.000000 0.000000 0.000000 
-0.612116 -0.260908 1.181390 0.000000 0.000000 0.000000 
-0.339214 -0.203717 0.651989 0.000000 0.000000 0.000000 
-0.317567 -0.221018 0.783417 0.000000 0.000000 0.000000 
-0.257968 -0.225916 0.753363 0.000000 0.000000 0.000000 
-0.265910 0.007264 0.705163 0.000000 0.000000 0.000000 
-0.702463 -0.050352 0.894766 0.000000 0.000000 0.000000 
-0.635030 -0.069919 0.974820 0.000000 0.000000 0.000000 
-0.637430 -0.028571 0.816774 0.000000 0.000000 0.000000 
-0.641383 -0.029612 0.814506 0.000000 0.000000 0.000000 
-0.659344 -0.092081 1.066860 0.000000 0.000000 0.000000 
-0.372908 -0.128872 1.168740 0.000000 0.000000 0.000000 
-0.254959 -0.204411 1.022190 0.000000 0.000000 0.000000 
-0.340385 0.004247 0.959116 0.000000 0.000000 0.000000 
-0.378757 -0.091257 1.188110 0.000000 0.000000 0.000000 
-0.256729 -0.048688 0.730152 0.000000 0.000000 0.000000 
-0.377460 -0.120938 1.168190 0.000000 0.000000 0.000000 
-0.259094 -0.091885 1.194380 0.000000 0.000000 0.000000 
-0.304578 -0.327136 1.155480 0.000000 0.000000 0.000000 
-0.249327 -0.246773 0.833701 0.000000 0.000000 0.000000 
-0.329619 -0.265263 1.143070 0.000000 0.000000 0.000000 
-0.307548 -0.250883 0.817036 0.000000 0.000000 0.000000 
-0.265034 -0.092553 1.200530 0.000000 0.000000 0.000000 
-0.270270 -0.091556 1.193570 0.000000 0.000000 0.000000 
-0.665421 -0.150179 1.203430 0.000000 0.000000 0.000000 
-0.815708 -0.237794 1.190610 0.000000 0.000000 0.000000 
-0.895865 -0.150580 1.213820 0.000000 0.000000 0.000000 
-0.857232 -0.217294 1.207230 0.000000 0.000000 0.000000 
-0.250179 -0.140496 1.048630 0.000000 0.000000 0.000000 
-0.324706 -0.253282 0.915094 0.000000 0.000000 0.000000 
-0.369547 -0.273533 1.140140 0.000000 0.000000 0.000000 
-0.340431 -0.203291 0.652744 0.000000 0.000000 0.000000 
-0.375539 -0.268776 1.137180 0.000000 0.000000 0.000000 
-0.474714 -0.322545 0.797678 0.000000 0.000000 0.000000 
-0.379993 -0.311150 1.163320 0.000000 0.000000 0.000000 
-0.258909 -0.249644 0.801174 0.000000 0.000000 0.000000 
-0.220469 -0.193925 0.676317 0.000000 0.000000 0.000000 
-0.345765 0.009495 0.744367 0.000000 0.000000 0.000000 
-0.750465 -0.158339 1.207460 0.000000 0.000000 0.000000 
-0.649104 -0.141181 1.208480 0.000000 0.000000 0.000000 
-0.374079 -0.309583 1.166790 0.000000 0.000000 0.000000 
-0.336717 -0.273838 1.145320 0.000000 0.000000 0.000000 
-0.285776 -0.315823 1.168570 0.000000 0.000000 0.000000 
-0.402335 -0.285990 0.929708 0.000000 0.000000 0.000000 
-0.456786 -0.256487 1.180300 0.000000 0.000000 0.000000 
-0.575145 -0.160747 1.212550 0.000000 0.000000 0.000000 
-0.628110 -0.283021 1.165920 0.000000 0.000000 0.000000 
-0.576099 -0.297411 1.170150 0.000000 0.000000 0.000000 
-0.635078 -0.232755 1.187310 0.000000 0.000000 0.000000 
-0.658940 -0.258513 1.178320 0.000000 0.000000 0.000000 
-0.745623 -0.156471 1.206590 0.000000 0.000000 0.000000 
-0.688269 -0.295424 1.178380 0.000000 0.000000 0.000000 
-0.634240 -0.151957 1.197640 0.000000 0.000000 0.000000 
-0.606280 -0.297457 1.170760 0.000000 0.000000 0.000000 
-0.280582 -0.302796 1.166320 0.000000 0.000000 0.000000 
-0.381006 -0.291452 1.172220 0.000000 0.000000 0.000000 
-0.248340 -0.246476 0.833177 0.000000 0.000000 0.000000 
-0.406012 -0.328120 1.159480 0.000000 0.000000 0.000000 
-0.310197 -0.007849 0.753336 0.000000 0.000000 0.000000 
-0.443767 -0.341434 1.138500 0.000000 0.000000 0.000000 
-0.227649 -0.214803 0.700308 0.000000 0.000000 0.000000 
-0.258913 -0.095434 1.200250 0.000000 0.000000 0.000000 
-0.460339 -0.342492 1.132860 0.000000 0.000000 0.000000 
-0.579145 -0.231145 1.186680 0.000000 0.000000 0.000000 
-0.575195 -0.266071 1.177780 0.000000 0.000000 0.000000 
-0.623574 -0.154243 1.209570 0.000000 0.000000 0.000000 
-0.579458 -0.220014 1.190280 0.000000 0.000000 0.000000 
-0.576496 -0.266435 1.178960 0.000000 0.000000 0.000000 
-0.579477 -0.231002 1.186540 0.000000 0.000000 0.000000 
-0.374718 -0.271522 1.137620 0.000000 0.000000 0.000000 
-0.582684 -0.228588 1.188490 0.000000 0.000000 0.000000 
-0.340943 -0.326485 1.128610 0.000000 0.000000 0.000000 
-0.383829 -0.221947 1.176010 0.000000 0.000000 0.000000 
-0.304630 -0.249434 0.821039 0.000000 0.000000 0.000000 
-0.365347 -0.280680 1.145530 0.000000 0.000000 0.000000 
-0.383195 -0.243949 1.152550 0.000000 0.000000 0.000000 
-0.381175 -0.242999 1.154350 0.000000 0.000000 0.000000 
-0.474759 -0.322305 0.797354 0.000000 0.000000 0.000000 
-0.232865 -0.221483 0.742604 0.000000 0.000000 0.000000 
-0.237257 -0.167354 0.676390 0.000000 0.000000 0.000000 
-0.227622 -0.169145 0.675403 0.000000 0.000000 0.000000 
-0.388393 -0.271200 1.129500 0.000000 0.000000 0.000000 
-0.343790 -0.202466 0.650667 0.000000 0.000000 0.000000 
-0.354130 -0.231726 0.722173 0.000000 0.000000 0.000000 
-0.280313 -0.301929 1.166750 0.000000 0.000000 0.000000 
-0.261478 -0.042916 0.787038 0.000000 0.000000 0.000000 
-0.457300 -0.267117 1.177160 0.000000 0.000000 0.000000 
-0.382306 -0.253251 1.180830 0.000000 0.000000 0.000000 
-0.453529 -0.319367 1.146560 0.000000 0.000000 0.000000 
-0.400009 -0.301354 1.168160 0.000000 0.000000 0.000000 
-0.405899 -0.324898 1.161240 0.000000 0.000000 0.000000 
-0.328020 -0.268684 1.142180 0.000000 0.000000 0.000000 
-0.378235 -0.226741 1.161470 0.000000 0.000000 0.000000 
-0.324429 -0.253846 0.915248 0.000000 0.000000 0.000000 
-0.693827 -0.050404 0.888798 0.000000 0.000000 0.000000 
-0.277172 -0.305213 1.168700 0.000000 0.000000 0.000000 
-0.510716 -0.063230 0.951909 0.000000 0.000000 0.000000 
-0.249180 -0.102787 1.059120 0.000000 0.000000 0.000000 
-0.643046 -0.120490 1.221550 0.000000 0.000000 0.000000 
-0.330245 -0.045975 0.966502 0.000000 0.000000 0.000000 
-0.694554 -0.051035 0.880949 0.000000 0.000000 0.000000 
-0.795688 -0.155089 1.207990 0.000000 0.000000 0.000000 
-0.248115 -0.325665 1.143650 0.000000 0.000000 0.000000 
-0.383675 -0.182087 1.169530 0.000000 0.000000 0.000000 
-0.634604 -0.067320 0.954308 0.000000 0.000000 0.000000 
-0.381038 -0.259980 1.151070 0.000000 0.000000 0.000000 
-0.734022 -0.156252 1.208220 0.000000 0.000000 0.000000 
-0.381194 -0.014558 1.224830 0.000000 0.000000 0.000000 
-0.501420 -0.088529 1.219420 0.000000 0.000000 0.000000 
-0.293412 -0.285336 1.118140 0.000000 0.000000 0.000000 
-0.537812 -0.030701 0.823049 0.000000 0.000000 0.000000 
-0.329204 -0.263187 0.910443 0.000000 0.000000 0.000000 
-0.541118 -0.026004 0.808924 0.000000 0.000000 0.000000 
-0.384597 -0.002677 1.196550 0.000000 0.000000 0.000000 
-0.725795 -0.093558 1.057970 0.000000 0.000000 0.000000 
-0.520331 -0.029164 0.863216 0.000000 0.000000 0.000000 
-0.380043 -0.058388 1.196640 0.000000 0.000000 0.000000 
-0.359250 -0.321491 1.115540 0.000000 0.000000 0.000000 
-0.380262 -0.058038 1.197240 0.000000 0.000000 0.000000 
-0.381317 -0.027169 1.207990 0.000000 0.000000 0.000000 
-0.381213 -0.030521 1.202350 0.000000 0.000000 0.000000 
-0.382306 -0.055343 1.190520 0.000000 0.000000 0.000000 
-0.381907 -0.053336 1.196890 0.000000 0.000000 0.000000 
-0.379897 -0.097469 1.183900 0.000000 0.000000 0.000000 
-0.846499 -0.228240 1.188180 0.000000 0.000000 0.000000 
-0.762734 -0.157002 1.210880 0.000000 0.000000 0.000000 
-0.889938 -0.211331 1.184210 0.000000 0.000000 0.000000 
-0.333466 -0.271430 1.145230 0.000000 0.000000 0.000000 
-0.272620 -0.301839 1.157130 0.000000 0.000000 0.000000 
-0.339670 -0.315347 1.061580 0.000000 0.000000 0.000000 
-0.278331 -0.281833 1.157470 0.000000 0.000000 0.000000 
-0.356555 -0.096462 1.182040 0.000000 0.000000 0.000000 
-0.253410 -0.087295 1.060950 0.000000 0.000000 0.000000 
-0.301631 -0.276445 1.146730 0.000000 0.000000 0.000000 
-0.372881 -0.272173 1.127010 0.000000 0.000000 0.000000 
-0.400005 -0.301778 1.168600 0.000000 0.000000 0.000000 
-0.312341 -0.231042 1.154640 0.000000 0.000000 0.000000 
-0.533104 -0.070303 0.987979 0.000000 0.000000 0.000000 
-0.381339 -0.223979 1.172370 0.000000 0.000000 0.000000 
-0.652079 -0.142096 1.210900 0.000000 0.000000 0.000000 
-0.372882 -0.129001 1.166130 0.000000 0.000000 0.000000 
-0.735084 -0.155197 1.205960 0.000000 0.000000 0.000000 
-0.846792 -0.218460 1.207910 0.000000 0.000000 0.000000 
-0.328251 -0.319502 1.068480 0.000000 0.000000 0.000000 
-0.534627 -0.041070 0.920332 0.000000 0.000000 0.000000 
-0.636540 -0.067166 0.957422 0.000000 0.000000 0.000000 
-0.377530 -0.004297 1.223610 0.000000 0.000000 0.000000 
-0.534292 -0.032250 0.807840 0.000000 0.000000 0.000000 
-0.503506 -0.062126 0.956010 0.000000 0.000000 0.000000 
-0.515377 -0.063256 0.946444 0.000000 0.000000 0.000000 
-0.515278 -0.035075 0.842510 0.000000 0.000000 0.000000 
-0.391972 -0.009933 1.240870 0.000000 0.000000 0.000000 
-0.388597 -0.017314 1.237980 0.000000 0.000000 0.000000 
-0.910396 -0.098793 1.068570 0.000000 0.000000 0.000000 
-0.379637 -0.056861 1.196580 0.000000 0.000000 0.000000 
-0.328255 -0.302814 1.035040 0.000000 0.000000 0.000000 
-0.359517 -0.274234 0.930279 0.000000 0.000000 0.000000 
-0.841974 -0.094048 1.058350 0.000000 0.000000 0.000000 
-0.384482 -0.001705 1.200600 0.000000 0.000000 0.000000 
-0.378546 -0.008472 1.207250 0.000000 0.000000 0.000000 
-0.378661 -0.187051 1.154360 0.000000 0.000000 0.000000 
-0.540858 -0.026067 0.806905 0.000000 0.000000 0.000000 
-0.628371 -0.051150 0.914457 0.000000 0.000000 0.000000 
-0.380747 -0.093536 1.184610 0.000000 0.000000 0.000000 
-0.370221 -0.156224 1.200890 0.000000 0.000000 0.000000 
-0.575095 -0.262378 1.179620 0.000000 0.000000 0.000000 
-0.322277 -0.329472 1.136580 0.000000 0.000000 0.000000 
-0.576218 -0.155102 1.202280 0.000000 0.000000 0.000000 
-0.262510 -0.092085 1.200070 0.000000 0.000000 0.000000 
-0.408487 -0.321798 1.162720 0.000000 0.000000 0.000000 
-0.637812 -0.069493 0.974088 0.000000 0.000000 0.000000 
-0.496588 -0.035670 1.235780 0.000000 0.000000 0.000000 
-0.517759 -0.050010 0.931221 0.000000 0.000000 0.000000 
-0.524212 -0.046283 0.920441 0.000000 0.000000 0.000000 
-0.361568 -0.293446 0.987617 0.000000 0.000000 0.000000 
-0.354186 -0.280585 0.946082 0.000000 0.000000 0.000000 
-1.120870 -0.180852 1.161440 0.000000 0.000000 0.000000 
-0.510904 -0.025434 0.870750 0.000000 0.000000 0.000000 
-0.383940 -0.101996 1.198220 0.000000 0.000000 0.000000 
-1.088650 -0.420614 1.066520 0.000000 0.000000 0.000000 
-1.121490 -0.235878 1.116830 0.000000 0.000000 0.000000 
-1.138620 -0.318610 1.125550 0.000000 0.000000 0.000000 
-0.513153 -0.026753 0.851466 0.000000 0.000000 0.000000 
-1.094440 -0.185714 1.124690 0.000000 0.000000 0.000000 
-1.125630 -0.183699 1.164290 0.000000 0.000000 0.000000 
-1.109280 -0.305030 1.099710 0.000000 0.000000 0.000000 
-0.544777 -0.012900 0.782370 0.000000 0.000000 0.000000 
-0.899621 -0.304802 1.174920 0.000000 0.000000 0.000000 
-0.655593 -0.221841 1.189900 0.000000 0.000000 0.000000 
-0.616658 -0.091193 1.057910 0.000000 0.000000 0.000000 
-0.708990 -0.089525 1.064850 0.000000 0.000000 0.000000 
-0.544185 -0.012601 0.782697 0.000000 0.000000 0.000000 
-0.536653 -0.024149 1.239250 0.000000 0.000000 0.000000 
-0.512673 -0.031132 0.833091 0.000000 0.000000 0.000000 
-0.515386 -0.050344 0.923614 0.000000 0.000000 0.000000 
-1.118840 -0.328230 1.121580 0.000000 0.000000 0.000000 
-0.700830 -0.047224 0.879737 0.000000 0.000000 0.000000 
-1.111730 -0.324013 1.115610 0.000000 0.000000 0.000000 
-0.945203 -0.112854 1.163870 0.000000 0.000000 0.000000 
-0.816658 -0.065105 0.938293 0.000000 0.000000 0.000000 
-0.552202 -0.015470 1.234720 0.000000 0.000000 0.000000 
-0.820922 -0.089372 1.033000 0.000000 0.000000 0.000000 
-0.516689 -0.031460 0.839444 0.000000 0.000000 0.000000 
-0.381032 -0.002792 1.218280 0.000000 0.000000 0.000000 
-0.371543 -0.131802 1.190600 0.000000 0.000000 0.000000 
-0.385534 -0.004111 1.184950 0.000000 0.000000 0.000000 
-0.657072 -0.124857 1.212070 0.000000 0.000000 0.000000 
-0.900352 -0.094878 1.058530 0.000000 0.000000 0.000000 
-0.745401 -0.158065 1.208510 0.000000 0.000000 0.000000 
-0.275245 -0.223925 0.978092 0.000000 0.000000 0.000000 
-0.379843 -0.221136 1.150040 0.000000 0.000000 0.000000 
-0.633067 -0.220260 1.191750 0.000000 0.000000 0.000000 
-0.460350 -0.250070 1.181020 0.000000 0.000000 0.000000 
-0.878104 -0.291695 1.171740 0.000000 0.000000 0.000000 
-0.574826 -0.298854 1.172470 0.000000 0.000000 0.000000 
-0.544734 -0.012738 0.783678 0.000000 0.000000 0.000000 
-0.737811 -0.156392 1.211210 0.000000 0.000000 0.000000 
-0.613954 -0.091380 1.063030 0.000000 0.000000 0.000000 
-0.614289 -0.061502 0.946024 0.000000 0.000000 0.000000 
-0.320701 -0.045993 0.971574 0.000000 0.000000 0.000000 
-0.617294 -0.061340 0.941887 0.000000 0.000000 0.000000 
-0.270446 -0.067244 1.198930 0.000000 0.000000 0.000000 
-0.283319 -0.297783 1.155970 0.000000 0.000000 0.000000 
-0.253770 -0.084611 1.037560 0.000000 0.000000 0.000000 
-0.239404 -0.084446 1.046960 0.000000 0.000000 0.000000 
-0.256967 -0.065226 1.210470 0.000000 0.000000 0.000000 
-0.312719 -0.095509 1.199770 0.000000 0.000000 0.000000 
-0.385221 -0.295379 1.171070 0.000000 0.000000 0.000000 
-0.772184 -0.156479 1.210310 0.000000 0.000000 0.000000 
-0.670570 -0.153846 1.176660 0.000000 0.000000 0.000000 
-0.632935 -0.069609 0.976485 0.000000 0.000000 0.000000 
-0.358148 -0.315391 1.164480 0.000000 0.000000 0.000000 
-0.385298 -0.307407 1.160250 0.000000 0.000000 0.000000 
-0.693969 -0.045767 0.875615 0.000000 0.000000 0.000000 
-0.645763 -0.121408 1.216460 0.000000 0.000000 0.000000 
-0.377197 -0.293219 1.175350 0.000000 0.000000 0.000000 
-0.692133 -0.045144 0.881007 0.000000 0.000000 0.000000 
-0.378113 -0.091483 1.188430 0.000000 0.000000 0.000000 
-0.257583 -0.233517 1.168170 0.000000 0.000000 0.000000 
-0.347303 -0.330377 1.136050 0.000000 0.000000 0.000000 
-0.376999 -0.156210 1.194050 0.000000 0.000000 0.000000 
-0.377618 -0.154955 1.193440 0.000000 0.000000 0.000000 
-0.351414 -0.331706 1.135180 0.000000 0.000000 0.000000 
-0.222305 -0.228184 1.220530 0.000000 0.000000 0.000000 
-0.225290 -0.320362 1.198400 0.000000 0.000000 0.000000 
-0.220442 -0.308923 1.142640 0.000000 0.000000 0.000000 
-0.696906 -0.050798 0.899107 0.000000 0.000000 0.000000 
-0.810081 -0.144553 1.206400 0.000000 0.000000 0.000000 
-0.632022 -0.040052 0.859572 0.000000 0.000000 0.000000 
-0.254202 -0.209234 1.005070 0.000000 0.000000 0.000000 
-0.290556 -0.089763 1.208600 0.000000 0.000000 0.000000 
-0.619453 -0.091024 1.052160 0.000000 0.000000 0.000000 
-0.274424 -0.072692 1.216510 0.000000 0.000000 0.000000 
-0.234792 -0.190121 0.933546 0.000000 0.000000 0.000000 
-0.226299 -0.215007 0.926159 0.000000 0.000000 0.000000 
-0.224487 -0.083484 1.050390 0.000000 0.000000 0.000000 
-0.323582 -0.215144 0.843509 0.000000 0.000000 0.000000 
-0.232276 -0.153370 0.953809 0.000000 0.000000 0.000000 
-0.229112 -0.024052 0.979264 0.000000 0.000000 0.000000 
-0.231380 -0.404217 1.184080 0.000000 0.000000 0.000000 
-0.227893 -0.204359 1.216460 0.000000 0.000000 0.000000 
-0.225749 -0.289944 1.198580 0.000000 0.000000 0.000000 
-0.230878 0.000443 1.212180 0.000000 0.000000 0.000000 
-0.211555 -0.386350 1.035220 0.000000 0.000000 0.000000 
-0.220835 -0.309913 1.142980 0.000000 0.000000 0.000000 
-0.227470 -0.224939 1.219290 0.000000 0.000000 0.000000 
-0.207637 -0.146683 1.190720 0.000000 0.000000 0.000000 
-0.244978 -0.231142 0.915390 0.000000 0.000000 0.000000 
-0.229588 -0.024080 0.979208 0.000000 0.000000 0.000000 
-0.231951 -0.309203 1.193870 0.000000 0.000000 0.000000 
-0.226833 -0.288722 1.197420 0.000000 0.000000 0.000000 
-0.207455 -0.284384 0.660302 0.000000 0.000000 0.000000 
-0.221745 -0.301382 1.061870 0.000000 0.000000 0.000000 
-0.229021 -0.339817 1.204220 0.000000 0.000000 0.000000 
-0.227522 -0.269575 1.197610 0.000000 0.000000 0.000000 
-0.223356 -0.290541 1.202770 0.000000 0.000000 0.000000 
-0.230782 -0.307470 1.125290 0.000000 0.000000 0.000000 
-0.213552 0.112226 0.757949 0.000000 0.000000 0.000000 
-0.196321 -0.223483 0.420721 0.000000 0.000000 0.000000 
-0.236732 -0.233112 0.818968 0.000000 0.000000 0.000000 
-0.228168 -0.155470 0.951956 0.000000 0.000000 0.000000 
-0.228167 -0.319575 1.196050 0.000000 0.000000 0.000000 
-0.238626 -0.275060 1.014780 0.000000 0.000000 0.000000 
-0.228812 -0.271851 1.193370 0.000000 0.000000 0.000000 
-0.230814 0.040528 1.058540 0.000000 0.000000 0.000000 
0.005686 -0.185374 0.185718 0.000000 0.000000 0.000000 
-0.229154 -0.154089 0.950473 0.000000 0.000000 0.000000 
-0.227065 -0.198487 1.042590 0.000000 0.000000 0.000000 
-0.206134 -0.239241 0.594944 0.000000 0.000000 0.000000 
0.006455 -0.185529 0.156047 0.000000 0.000000 0.000000 
-0.226648 -0.158617 0.959461 0.000000 0.000000 0.000000 
-0.203800 -0.008832 1.226010 0.000000 0.000000 0.000000 
-0.216520 0.028318 1.101490 0.000000 0.000000 0.000000 
-0.453417 0.074326 0.893306 0.000000 0.000000 0.000000 
-0.209997 -0.058349 1.006590 0.000000 0.000000 0.000000 
-0.229215 -0.215832 0.918731 0.000000 0.000000 0.000000 
-0.220725 0.009708 0.870200 0.000000 0.000000 0.000000 
-0.227143 -0.249546 0.893293 0.000000 0.000000 0.000000 
-0.215447 -0.280115 1.054660 0.000000 0.000000 0.000000 
-0.225623 -0.261528 1.171040 0.000000 0.000000 0.000000 
-0.227652 -0.300743 1.151640 0.000000 0.000000 0.000000 
-0.225463 -0.228753 1.217790 0.000000 0.000000 0.000000 
-0.074023 -0.192473 0.310942 0.000000 0.000000 0.000000 
-0.215246 -0.299953 1.066140 0.000000 0.000000 0.000000 
-0.217672 -0.106911 1.203950 0.000000 0.000000 0.000000 
-0.224612 -0.212470 1.219650 0.000000 0.000000 0.000000 
-0.219126 0.021940 0.937191 0.000000 0.000000 0.000000 
-0.206271 -0.219096 0.492040 0.000000 0.000000 0.000000 
-0.245509 -0.229025 0.799849 0.000000 0.000000 0.000000 
-0.476951 0.111372 0.790756 0.000000 0.000000 0.000000 
-0.221829 0.074477 0.920346 0.000000 0.000000 0.000000 
-0.239454 -0.235678 0.918182 0.000000 0.000000 0.000000 
-0.258046 -0.200850 0.774893 0.000000 0.000000 0.000000 
-0.210141 -0.123233 0.342674 0.000000 0.000000 0.000000 
-0.483688 0.093126 0.855156 0.000000 0.000000 0.000000 
-0.229430 -0.207901 0.835505 0.000000 0.000000 0.000000 
-0.822274 0.027208 0.374881 0.000000 0.000000 0.000000 
-0.226189 -0.070397 0.974414 0.000000 0.000000 0.000000 
